# 3D point list with one line of data per point:
#   POINT3D_ID, X, Y, Z, R, G, B, ERROR, TRACK[] as (IMAGE_ID, POINT2D_IDX)
# Number of points: 256, mean track length: 22.9664
3083 -2.99534 -4.75096 10.0753 160 157 163 1.7158 80 418 102 399 114 401 450 407 104 429 105 415 107 305 106 299 69 403
3073 3.88733 -3.92567 10.5844 56 39 29 0.530477 116 186 117 198 118 205 119 213 120 139 121 164 127 117 126 161 115 204
15923 -3.52494 -0.761321 9.41328 149 96 94 0.667929 319 90 327 113
3070 4.69772 -0.710361 11.8982 36 19 5 0.781951 100 302 116 220 117 182 103 249 99 303 119 247 101 214 104 216 105 223 115 190 107 143 106 129 107 173 111 139 112 134 110 106 108 112 109 156
9489 1.71356 -2.47414 10.0924 0 0 0 1.59434 143 351 144 322 145 374 169 390
15921 4.82482 -2.10657 10.4153 50 33 30 0.943521 317 481 320 566 321 543 322 553 323 549 325 561 298 596 305 610 306 591 308 583 311 571 312 562 293 637 294 684 295 621 296 621 297 613 299 593 300 637 301 633 303 666 304 643 307 590 275 521 282 539 284 587 276 555 277 566 279 631 281 616 283 588 285 665 268 573 270 657 271 594 272 607 273 575 274 579 278 631 254 623 255 606 257 551 259 592 260 589 263 587 207 435 209 481 210 513 211 580 218 631 243 658 244 624 245 607 246 596 248 585 267 635 286 584 287 619 288 594 289 609 290 586 292 731 314 555 315 522 316 543 318 537 333 569 326 520 327 550 328 506 329 509 330 477 331 522 334 577 337 598 332 516 340 566 338 569 339 607 342 588 341 598 343 574 349 596 350 625 351 566 348 587 345 575 357 641 352 582 354 608 344 561 353 577 356 644 355 591 346 549 359 734 363 649 360 658 361 596 362 628 364 610 365 619 366 594 367 635 368 624 371 590 370 622 372 624 375 534 373 557 374 571 377 548 376 526 381 526 378 452 379 528 383 521 382 495 392 562 388 507 393 531 387 508 386 481 384 463 394 542 395 495 396 490 390 504 389 448 397 481 409 490 399 430 420 453 421 451
3068 4.18133 -2.76456 10.1416 141 98 83 1.80333 124 181 433 179 103 230 123 92 269 211 89 277 105 85 115 131 107 93 106 118 111 92 84 129 109 79 229 97 230 272 228 100 231 259 232 208 233 226 242 242 246 95 248 86
3067 2.43782 -3.185 8.69074 207 137 127 0.794924 430 209 433 234 103 223 429 218 104 130 88 100 90 43 89 34 87 28 86 65 70 208 71 75 67 196 66 67 65 213 68 182 64 201 56 65 57 71 54 199 53 207 55 60 52 218 51 189 50 209 48 209 49 59 46 187 45 165 21 197 19 171 44 144 20 168 15 168 39 180 38 150 27 223 29 199 42 137 43 144 41 143 40 154 12 157 84 28 475 68 467 18 13 121 469 20 466 11 468 24 465 64 6 66 7 49 8 54 9 50
12689 -1.20592 -5.00501 9.94978 100 65 66 1.96004 252 310 255 393 257 329 263 447 259 325 266 465
6268 3.91157 -3.92098 10.759 88 57 45 1.05557 65 345 462 178 463 204 461 186 464 111 477 282 478 270 476 273 479 270 17 339 16 262 12 279 95 22 21 317 92 32 93 29 94 30 96 22 97 188 98 28 105 22 101 113 103 18 104 12 475 141 471 187 467 165 13 271 469 143 466 119 465 92 7 150 456 33
3065 -1.61978 -3.56796 8.08621 197 124 130 1.01303 280 185 336 219 347 228 369 195 425 195 427 191 428 191 429 201 430 197 431 198 432 219 433 146 434 142 435 223 103 131 269 190 291 211 313 210 358 206 424 211 181 283 183 270 182 269 185 254
3063 -2.42766 -1.47711 9.74428 93 54 42 0.992714 97 147 98 150 100 123 448 278 103 98 101 157 105 166 104 160 75 147 67 228 59 199
6265 1.40988 -3.54342 8.8617 203 128 110 0.936084 15 500 40 457 12 478 13 435 18 497
3062 1.89574 -2.30627 10.1461 179 116 96 1.68691 147 235 449 183 111 38 115 60 116 153 461 59 112 48 159 390 153 272 468 65 469 86 460 131
9481 1.03452 -3.39806 9.14993 126 52 50 1.34301 123 359 137 237
15913 -7.33757 -2.03664 13.3762 226 225 216 1.06389 322 644 323 634 325 612 327 631 329 585 328 587 331 609 326 573 330 557 333 628 334 630 318 640 337 656 332 564 342 642
3060 4.55668 -2.95893 10.2448 63 28 15 1.39575 126 68 103 70 93 96 89 56 90 62 50 57 48 81 49 65 21 66 23 83 22 64 24 74 20 72 78 195 15 56 12 239 13 28 131 19
6262 -3.11592 -1.65823 8.57425 182 102 91 1.34138 38 461 42 447 12 470 20 481 22 503 23 532 24 530 26 576 27 504 28 519 29 483 31 497 32 513 37 535 30 510 13 428
9480 -2.50133 -3.79969 9.5997 186 163 164 0.808761 165 435 145 310 148 371 142 241 216 28 227 41 218 34 226 325 228 270
15912 -1.70663 -4.79383 9.67819 100 45 32 1.64168 316 632 317 561 318 633 319 630 325 607 327 627 326 568
3059 4.51749 -2.96982 10.1491 63 30 19 1.37664 119 66 434 69 116 144 117 212 78 194 77 110 74 254 70 83 71 204 67 64 66 77 76 143 65 81 68 69 477 53 55 191 478 51 50 58 48 80 81 51 82 41 480 42 45 258 83 43 21 67 23 82 22 65 24 73 44 250 20 71 15 55 39 72 40 51 13 27 465 23 110 64 8 23 159 69 5 11 455 30
12657 2.82234 -3.97311 9.19992 162 146 140 0.703966 246 25 260 17 261 26 263 22 238 19 239 146 241 25 242 22 243 232 244 201 245 191 240 178
6236 0.617374 -4.50189 8.32453 109 72 69 1.40415 19 131 51 152 12 11
15886 -2.33089 -1.64799 10.4104 177 164 163 1.04775 288 270 327 260 286 352 289 281 290 291
12656 -1.01727 -3.71362 7.9341 161 120 127 1.43205 255 14 263 5 253 15 265 196 267 202 266 198 268 179 278 194 281 7 284 7 288 15 286 5 290 10 293 394 299 318 307 3 309 7 306 5 310 4 312 13 314 6 316 7 315 13 318 7 318 138 320 174 322 177 321 159 317 11 317 136 331 163 326 162 330 163 337 192 332 178 342 4 343 178 345 1 344 152 353 188 346 2 353 4 354 5 359 9 360 9 361 211 362 10 364 6 370 7 355 4 374 5 377 5 376 1
6235 1.05033 -5.03461 10.2329 122 85 84 0.547544 34 2 12 2
15885 -2.57641 -1.68707 10.206 157 100 99 1.34215 318 289 327 252 320 321 321 283 329 86 328 90 331 94 332 83
3032 2.46742 -1.90881 10.2855 0 0 0 1.90239 126 333 448 305 92 411
19074 -4.07887 -1.35084 8.46773 172 160 160 0.446813 408 61 409 62 282 213
6221 1.58656 -4.97431 10.4833 58 33 30 1.03663 41 108 43 107 52 5 40 114
9439 2.7574 -1.85898 10.0878 0 0 0 0.640799 118 438 150 451
15871 -2.63012 -1.46499 9.75432 156 106 96 1.8323 316 207 325 299
3018 -3.55126 -0.847118 9.58145 69 43 31 2.2428 119 97 129 103 347 326 107 144 81 195 150 294 109 117 144 209 468 130 77 199 162 106 161 121 171 126 456 95 453 66 111 51
6220 -0.488617 -3.77125 7.26747 205 131 124 0.62209 17 32 42 119 49 36 40 27
15870 0.969952 -3.51468 9.07509 162 89 84 1.41675 316 165 315 173 318 143 319 295 325 285 283 200 284 207 287 237 292 316 294 267 295 222 293 257 296 253 309 207 308 214 320 189 322 193 323 205 317 223 321 262 327 213 328 175 328 267 326 260 351 342 352 349 357 415 354 384 359 494 363 434 361 385 360 418 362 397 371 383 364 389 365 394 366 384 367 421 368 397 372 414 370 416 375 353 373 387 374 354 376 352 381 338 378 280 379 303 383 323 392 344 386 315 387 310 389 292 390 292 389 249
3017 3.54926 -4.13095 10.5382 172 152 141 1.25229 117 14 118 16 126 153 129 66 123 20 124 151 120 13 121 21 115 10 107 13 105 11 106 8 131 59 135 8
12640 4.08407 -1.0297 10.6647 157 90 79 0.433605 243 606 244 569 257 503
19072 -0.585295 4.9747 3.38956 190 178 178 0.16419 396 294 409 11
6219 -1.10755 -4.31236 7.51928 133 96 88 1.42996 17 11 18 18 21 8 35 10 39 10 40 13 20 144 31 14
15869 4.86178 -2.00881 10.3488 143 104 93 1.05069 314 319 322 330 219 290 248 250 238 181 253 367 254 348 252 348 249 297 250 331 256 311 259 259 260 354 263 336 264 340 262 321 277 314 325 301
3016 3.92418 -3.96217 6.05923 0 0 0 2.71829 117 2 258 170 247 172 291 1
15868 -4.01572 -1.29021 13.4606 46 33 20 1.36409 314 487 316 476 317 493 321 490 305 583 308 556 309 574 310 517 312 552 314 568 316 558 315 534 318 512 319 541 320 546 320 608 329 449 325 508 334 472 326 431 328 481 333 523 330 460 337 495 339 507 338 515 339 557 342 533 350 610 348 502 349 543 351 515 352 521 354 591 350 528 351 461 349 498 352 475 354 505 357 534 353 477 356 529 355 483 346 464 359 627 360 540 363 546 361 497 362 519 362 567 364 497 364 561 365 501 365 560 366 482 366 538 367 524 368 506 371 486 370 564 370 519 372 518 372 567 373 496 375 412 374 457 377 438 381 494 388 490 383 466 385 461 387 457 389 400 406 492 401 509 398 429
3015 0.568923 -1.01391 10.523 191 118 102 0.120283 470 74 129 45
15867 -4.20117 -1.3284 13.4275 83 55 39 1.54412 304 550 317 369 309 485 311 446 318 381 301 545 310 442 312 433 315 413 308 555 305 582 304 595 318 511 329 356 327 450 325 411 331 368 328 404 333 381 326 430 330 319 337 404 334 417 332 335 338 419 340 423 339 413 342 398 349 408 341 444 348 400 345 438 350 435 353 430 356 485 355 443 359 536 360 495 364 458 366 447 367 483 368 469 371 415 372 472 377 374 376 338 381 376 378 314 379 342 383 357 382 321 387 403 394 393 399 276 401 386 411 400
3014 5.321 -1.71594 10.1533 85 51 49 1.31135 451 60 162 96 159 107 151 107 161 111 143 56 139 47 144 42 146 88 165 121 167 110 168 102 142 52 186 91 188 90 140 42
6197 3.98999 -3.92288 10.9645 86 55 43 1.54972 39 160 54 169 53 182 55 20 56 162 12 221 7 81 8 42 480 95 6 103 5 47
2994 -4.68744 -1.804 8.74954 231 230 223 1.33769 128 385 426 416 459 387 470 373 437 358 448 385
6195 -1.73711 -3.60642 8.10218 154 84 78 0.853765 33 61 74 236 41 131
6194 -3.38126 -1.38045 8.90053 193 130 119 0.912891 72 131 41 97 40 105 13 152
2991 0.75706 -3.19249 10.1014 213 142 130 1.91065 126 383 432 415 433 419 434 409 449 355 324 382 424 384 430 419 436 427 125 369 435 403 127 345 369 377 336 400 358 394 131 236 446 138
2986 3.54307 -2.31595 9.68452 188 129 112 1.13309 116 312 118 339 119 352 121 381 122 356 127 322 88 285 106 211 111 219 86 233 75 255 62 331 79 258 110 170 109 181 131 207 133 174 143 289 139 226 163 409 174 383 173 356 176 354 178 378 179 345 181 356 183 366 182 339 187 400 186 387 184 362 188 371 185 361 189 407 190 413 137 214 134 189 193 316 195 305 194 320 196 351 198 385 197 328 200 393 201 357 199 377 205 382 204 379 211 526 210 468 212 502 214 479 209 443 208 452 207 416 215 527 203 371 206 373 135 160
15834 3.62203 -0.938081 12.4682 123 106 99 1.27871 317 99 319 125 320 133 321 235 322 131 323 143 325 254 329 122 328 120 331 237 326 123 330 224 333 145 334 262 337 272 332 241 340 279 338 139 339 291 342 271 341 273 343 264 349 263 350 302 348 253 345 257 352 127 354 283 344 246 353 266 356 298 355 279 346 248 360 172 365 141 368 294 371 158 370 169 372 176 375 135 373 135 374 150 377 136 376 120 392 130 388 111 393 122 394 117 407 150 401 124 408 158 405 135 410 131 400 123 415 120 399 100
2981 -2.41607 -2.52133 9.3251 169 164 166 1.17934 128 255 291 341 336 341 347 357 358 334 369 316 380 346 402 312 413 310 424 330 127 283
6181 -0.595025 -3.2948 8.64613 177 95 75 0.967794 60 489 61 494 62 481 63 504 43 383 6 319 7 279 5 242
9399 -0.137372 -3.5249 8.41455 99 44 40 0.884767 182 272 190 297 195 235 196 275 198 319 197 258 201 276
2978 3.08443 -1.49685 10.5145 180 109 92 1.39413 1 385 2 266 128 304 224 202 93 352 92 417 463 275 464 177 127 257 75 211 477 314 55 286 478 297 46 354 21 295 17 266 44 263 45 277 39 271 27 309 26 364 29 339 31 347 42 271 43 239 41 238 40 234 12 339 473 151 475 175 13 252 466 197 465 163 6 178 110 175 474 111 7 132 9 132 132 153 145 209 154 276 153 226 151 254 156 274 167 310 178 206 202 257 188 223 190 110 189 181 140 161 134 167 453 86 457 120 456 87 5 107 455 104 11 97
6177 -3.48637 -2.6064 8.90641 0 0 0 1.54748 33 384 46 347
9394 -3.70022 -0.559153 9.50749 0 0 0 1.23032 182 108 183 105 432 211
2973 -1.5071 -0.311356 12.1525 110 64 43 1.21941 236 143 247 112 258 111 269 104 302 107 432 137 435 135 436 212 225 180 280 107 291 140 313 117 434 130 438 158 433 134 138 70 137 115
2972 -1.45503 -0.756483 10.0155 200 127 120 0.839312 434 249 436 252 448 203 127 163 88 205 87 203 78 231 77 206 82 176 146 226 149 221 144 165 154 282 153 230 155 260 152 259 151 258 156 279 157 284 165 319 167 314 166 311 170 316 168 274 171 276 172 305 179 248 183 188 182 189 187 257 186 237 184 224 188 227 185 165 189 256 194 131 198 236 196 181 197 184 199 223 441 50
15824 -2.58772 -1.54582 9.95436 155 109 109 1.30408 303 130 325 82 301 114 306 104 309 99 310 97 314 100 327 251 329 205 342 332
2971 4.87244 -2.2945 10.3677 110 72 66 1.04234 99 212 128 142 127 142 146 214 129 144 145 200 148 252 149 205 143 181 150 241 144 155 139 81 153 218 155 245 151 247 159 328 163 273 160 190 164 284 165 301 142 152 174 260 175 274 179 240 183 240 184 213 188 260 185 222 189 301 192 214 192 270 183 288 211 339 212 375 218 369
9388 3.27874 -0.677814 11.7304 103 61 37 0.370596 176 126 184 100 190 126
2967 -2.61724 -1.03366 10.5431 78 41 31 1.17259 440 172 127 85 302 86 347 204 380 209 391 105 402 170 425 171 428 169 258 155 247 158
9385 1.16463 -3.39765 9.10813 184 112 114 1.88382 154 46 188 41 190 41
2964 4.32747 -2.08162 9.14509 95 55 48 0.233164 347 96 358 78 201 134 200 157
12587 5.36005 -3.56556 10.8897 58 38 29 1.02616 251 376 260 338 263 312 265 239 264 214 262 300 267 237 270 267 268 313
19019 -2.39774 -1.78249 9.51475 0 0 0 0.900572 374 620 387 558 401 576
6166 6.43037 -3.85988 11.8465 59 46 43 1.91042 76 274 41 257 22 345
9384 6.54668 -4.6526 11.0903 0 0 0 0.453735 176 33 425 13 175 159
2963 4.91782 -2.14129 10.3857 95 55 48 0.925873 347 95 358 79 127 70 175 91 176 98 186 81 192 68 200 69 199 58 226 160 227 120 222 292 220 274 223 313 228 138 237 90 239 70 206 45
9383 -4.23916 -3.29896 7.6368 113 82 78 0.890607 164 22 165 20 190 21
2962 4.18629 -3.29707 10.1809 113 76 63 1.00728 86 21 90 46 92 69 94 47 95 54 96 43 97 62 98 54 93 60 78 31 76 35 77 19 72 57 74 49 70 69 71 62 67 192 65 71 73 40 60 57 56 39 59 62 53 54 52 52 79 30 51 57 50 51 54 49 48 57 49 53 81 32 85 23 480 35 46 54 83 26 21 50 22 56 24 59 16 33 38 37 27 84 37 69 35 75 33 69 30 67 18 51 42 32 41 29 40 35 473 34 6 12 150 44 152 51 151 53 134 11 135 12
6164 -2.32507 -4.663 9.20755 150 142 148 1.80229 39 214 43 109 42 1 41 2 40 2 157 2 160 5
9382 -1.28583 -3.91164 7.61054 106 43 45 1.40347 165 9 189 8 190 7 239 11
2961 -2.29824 -4.71902 9.45675 165 156 166 2.0982 120 0 440 1 94 246 462 1 477 212 480 2 22 136 236 188 225 282 9 33 8 38 458 81
19016 -3.70079 -0.255241 12.7402 0 0 0 1.50841 381 548 395 483 401 512 406 541
6163 0.896087 -4.48485 8.4001 109 73 68 1.29121 19 10 21 161 72 10 17 128 71 15 44 111 20 8 27 183 34 16 29 151 30 170 32 168 31 9 18 14 42 179 64 159 477 127 478 2 479 16 480 8 43 195 41 185 12 13 7 77
15813 -1.32462 -3.63812 7.81203 185 106 109 1.50011 271 178 273 152 274 179 276 165 275 134 317 134 290 9 312 173 320 3 321 7 331 159 330 7 332 174 338 290 339 196 341 295 342 294 343 290 345 292 348 287 356 323 366 2 375 160 373 181 374 199 376 149
2960 3.40181 -6.32696 9.88123 155 146 142 1.96267 117 414 118 427 119 428 120 439 121 472 122 442 123 491 124 451 126 444 128 410 116 403 127 404 115 377 112 302 110 297 108 287
2956 -1.75701 -3.00979 10.5909 192 109 94 1.73753 14 407 25 445 116 450 112 341 110 334 2 507
2950 -1.33771 -0.718179 10.68 192 114 104 1.65845 96 610 450 450 89 502 90 503 92 653 93 570 94 582 95 551 97 585 98 595 99 559 100 559 88 459 115 416 107 342 106 338 111 343 110 331
9368 2.2933 -0.476513 11.645 57 31 8 1.31539 176 301 189 368 190 328 145 102 154 220 155 111 156 215 151 133 152 118 153 94 193 268
2947 4.25991 -0.763968 11.5223 69 44 25 1.62677 118 424 119 426 120 434 121 470 122 439 123 488 124 449 128 407 116 401 117 412 126 439 127 399 129 331 111 303 107 301 115 376 112 301 110 294 130 319 108 284 109 298 131 295 132 295 133 262 134 279
9363 -3.08616 -0.178883 9.70312 110 67 52 1.50552 188 322 189 330 190 332 192 291 193 231 195 260 194 235 196 296 198 305 201 258 199 284 205 287 204 283 209 386 210 411 211 427 212 456 214 374 208 331 207 336 216 502 215 467 217 565 218 464 219 505 203 219 206 299
2942 -1.05398 -0.505163 10.7785 89 55 33 2.00894 100 478 116 327 115 306 101 306 103 345 105 275 100 368 111 235 71 247 67 370 92 358 93 229 94 242 112 233 110 188 111 267 112 263 109 196
15791 2.84064 -1.61699 10.4957 103 52 44 1.35536 270 466 317 308 342 338 343 244 338 255 351 224 345 232 353 246 395 176 419 49
2938 -0.31926 -3.16072 10.1477 195 108 94 0.40739 114 272 116 277 472 276
18993 -2.04107 -1.6143 9.84739 183 111 99 0.419634 384 64 385 68 387 77 388 76 408 102 386 72 389 64 409 89 395 66 410 86 411 95 412 94 414 94 418 75 416 80 417 66 423 63 422 34 421 34
6140 -2.08242 -1.16661 10.1957 107 63 56 1.86224 26 367 39 318 437 67 448 70 20 263 335 90 426 102 47 84 19 277 18 195 15 123 42 223 21 299 16 178 13 80 17 111 31 239 22 287
2937 -0.319232 -3.16014 10.1628 195 108 94 0.607216 25 274 47 272 58 312 69 279 80 271 91 268 102 273 114 271 125 274 136 269 180 247 202 319 213 336 280 289 291 334 313 316 324 313 116 276 472 275
6139 0.329286 -4.57808 7.9969 73 32 32 1.53866 15 280 19 289 21 308 44 209 45 225 48 365 42 177 20 267 46 313 20 132 26 9 23 9 13 164
2936 0.76189 -3.42876 8.84406 155 85 75 1.38753 100 328 98 360 103 316 99 326 95 303 97 388 96 365 94 339 92 392 93 323 89 268 90 271 101 274 104 291 105 283 107 185 106 169 472 221 477 151 476 117 84 71 475 156 110 155 474 90 108 163 109 165
15788 -3.31354 -0.22331 9.68565 0 0 0 1.18809 298 279 300 474 318 301 320 250
2935 -1.88023 -3.48837 8.57882 135 61 52 0.868646 99 368 100 325 123 27 87 83
18990 -3.57116 -3.60968 8.29721 234 219 215 1.44876 408 16 399 244 395 8 396 13 423 139
6137 2.69482 -0.470096 11.6436 0 0 0 1.37782 60 342 478 255
15787 5.29388 -1.51202 10.3502 109 68 66 1.3506 217 125 321 88 322 98 317 255 389 219 390 257 396 298
2934 -1.08825 -3.61438 8.1265 0 0 0 1.37485 119 265 452 314 451 300 453 114
2932 4.95769 -4.28664 8.0264 102 86 80 2.67373 447 4 116 231
9352 -1.77474 -4.1038 8.18795 108 54 63 1.80675 159 294 187 8 189 129 201 6 198 127 203 116
2931 -2.28146 -0.259594 10.1363 82 42 35 0.815941 117 189 224 97 116 230
6133 2.21172 -4.70029 10.3306 124 93 85 0.753589 44 107 45 11 53 3 42 4 46 6 49 7 50 5 12 7 41 5 43 4
9351 5.6507 -0.389637 11.4797 156 111 104 1.6986 170 174 188 123 189 120 168 142 172 156 190 143 226 267 227 188 229 223 228 221 232 156 233 174 234 191 242 164 243 186 253 190 251 167 252 168 250 169 255 172 261 170 259 150 260 146 257 138 263 138 262 141 267 165 266 162 277 137 284 155 285 197 294 209 296 198 286 168
15783 4.97892 -0.646696 12.1608 125 102 96 2.0473 307 179 312 153 317 114
2930 -1.34609 -0.442496 10.4991 73 40 23 1.70827 95 344 96 452 116 226 97 426 98 445 99 405 103 385 92 486 92 539 93 367 104 321 105 306 88 255 90 235 87 289 86 244 56 311 64 251 54 315 477 210 478 259 52 354
2928 1.95169 -2.28847 9.90166 214 150 135 1.33344 69 239 347 255 358 294 380 308 391 266 402 267 413 266 424 244 450 253 116 208 369 282 449 225 369 230 425 264 427 269 425 222 427 225 462 146 463 160 461 139 146 287 148 350 153 318 151 353
6130 -4.36926 -3.1618 13.9455 0 0 0 1.29215 19 24 180 120
9348 4.85354 -2.47469 10.2705 90 52 42 1.64453 174 76 189 74 193 50 166 85 199 56 204 58 211 81 210 63 214 79 215 67 218 102 244 104 242 104 237 203 235 313 244 341 243 104 243 371 245 96 245 326 248 95 248 326 239 189 241 92 249 94 264 234 268 325 240 90
15780 -1.14597 -2.9246 10.699 99 47 42 0.85125 298 93 310 73 317 55 327 79 329 73 328 74 337 82
2927 2.21639 -4.38473 9.1494 215 200 189 1.32092 118 125 119 13 121 153 451 92 122 10 123 164 124 10 224 14 450 3 452 120 126 3 116 178 110 84
18981 0.97444 -2.47287 10.492 128 73 62 1.1822 395 461 396 488 397 444 403 505 404 515 401 489 405 498 400 459 398 406 399 398
6128 2.72768 -3.58492 8.86293 73 46 42 0.945401 17 37 76 24 21 39 68 38 436 30 358 21 391 19 335 26 23 53 26 220 18 43
15778 -1.50359 -4.83922 9.62004 130 101 93 1.88671 300 13 309 14 315 19 317 17
2925 -0.95928 -3.07677 3.80203 0 0 0 0.576974 117 9 436 0
2922 2.52935 -2.98309 8.69662 226 166 154 1.06101 213 53 116 70 191 39 92 91 89 51 90 58 88 43 78 48 76 56 77 41 83 42
2921 2.29844 -2.92464 8.90035 0 0 0 0.924119 114 45 434 56 447 35 269 59
12544 0.813083 -1.06863 11.0468 197 145 144 1.65291 250 627 255 629 256 637 261 678 259 647 260 658 257 592 265 694 264 633 262 599 271 649 270 702 272 659 273 623 274 625 276 583 285 707 284 647 275 562 287 690 288 666 286 657
6123 0.520079 -0.461046 11.5255 0 0 0 2.05747 122 471 119 441 120 455 121 502 123 516 118 443 127 419 126 460 124 462
15773 -4.19758 -3.42395 7.72236 143 93 82 0.946668 315 8 321 6
2920 2.15658 -2.90927 8.77905 194 127 113 0.914689 58 42 102 42 120 54 136 47 147 48 158 44 169 41 180 47 191 44 202 50 213 59 225 57 236 43 247 52 258 58 269 56 280 39 291 65 302 41 116 55 115 46 66 87 75 47 64 88 62 88 63 97 60 88 46 85 12 79 33 99
2918 3.46214 -4.07758 10.1327 142 126 115 0.638335 117 13 119 18 120 12 121 20 116 9 126 17 129 4 130 6
15770 1.74132 -3.21037 8.64885 110 67 67 1.45463 207 317 245 444 316 421 318 410 321 384 124 304 118 260 317 293 334 392 351 399 365 443 404 368 403 321 392 276 407 343 406 336 408 353 409 326 405 328 411 323 412 335 414 334 415 242 419 236 416 267 419 186 420 252 421 240
2917 3.91587 -4.36286 11.6352 160 151 136 1.75782 98 185 117 12 96 178 99 11 100 17 97 182 116 8 127 9 103 124 90 12 101 104 104 8 105 12 115 11 111 13 112 10 110 3
12532 4.14735 -1.62169 10.3582 190 128 115 2.31481 221 546 259 482 260 482 287 516
6111 2.66117 -3.50145 8.86959 131 73 59 1.92144 17 39 20 154 27 83 35 187 26 232 29 181 12 149 13 110 8 47 9 41 65 50 67 43 70 63
2908 -1.41137 -2.20471 10.1675 180 99 88 1.82168 119 450 120 461 121 496 122 465 123 510 128 431 117 439 116 425 103 480 129 351 104 455 118 448 107 327 105 436 115 397 111 326 106 322 460 376 110 314 112 323 108 304 109 317 132 320 456 257 458 269
15758 5.87413 -3.48257 10.4144 93 81 71 1.62191 315 515 316 568 318 567 319 578 320 592 322 582 323 545 321 536 317 504 325 528 327 574 329 529 328 527 331 552 326 515 330 500 333 563 327 601 342 586 343 572 345 572 349 592 348 559 350 599 344 559 346 545
2905 0.268889 -3.55265 8.07423 122 65 62 0.856232 118 361 119 369 120 382 121 404 122 376 123 426 117 378 116 367 115 314 111 246 112 269 110 229 108 251 109 264
2904 -3.93384 -4.22198 9.00353 161 158 164 2.05049 291 359 117 374 225 317 236 234 269 334 247 351 269 371 116 362
15752 5.46825 -0.517674 12.2531 47 28 16 1.65844 310 448 323 409 339 416 341 404 349 414 356 445 379 287 384 247 311 454
2899 -2.75543 -1.04695 10.4071 68 48 30 2.04162 128 308 402 358 429 373 432 339 433 333 438 453 431 372 313 337 347 373 358 352 369 332 413 361 424 339 425 312 430 371 436 301 439 296 440 309 427 356 428 359 129 191 130 217 132 155 131 181 133 157 134 137 134 98
12522 3.89865 -0.611093 14.4578 68 38 10 1.80844 214 332 216 380 217 434 233 370 212 341 267 306 281 365 234 391 278 464 319 415 310 409 296 436 331 322 329 370 341 353 342 354 350 387
6101 6.1879 -2.48349 10.2346 51 22 17 0.824866 24 232 50 231 31 216 12 246 54 290
2887 -1.48703 -3.55257 8.06198 169 115 119 0.73327 380 233 391 197 413 188 424 215 425 198 427 194 117 196 180 157
6089 -2.5354 -1.48591 9.39209 73 52 39 1.10805 16 401 19 469 20 416 21 476 22 436 23 464 24 462 26 518 27 452 28 465 29 428 30 459 33 451 34 471 35 409 37 496 38 391 39 439 32 457 17 396 15 391 16 366 31 439 18 438 43 362 40 402 13 331 11 179
9307 -0.857918 -0.657298 10.4178 192 126 109 1.89726 164 119 185 94 170 150
15739 -1.00911 -3.73262 8.04178 228 229 217 1.37921 290 512 323 501 337 509 332 432 382 406 392 390 393 355 395 333 396 367 404 364 407 388 400 338 405 361 409 367 408 348 410 305 411 371 412 326 399 290 419 287
2886 -2.16077 -3.62517 8.81843 131 77 70 1.62843 452 193 117 193 113 269 116 112 115 157 106 168
15738 -4.33393 -2.5405 7.81311 233 232 225 1.85751 286 210 322 301 323 298 332 183
2885 4.09986 -4.28645 11.5377 143 129 115 1.62207 99 164 118 198 119 207 95 150 96 180 97 183 98 190 100 158 117 192 116 181 127 184 129 67 103 126 94 167 92 185 93 159 89 182 90 174 101 107 104 181 105 116 88 151 115 152 107 115 106 98 111 105 87 74 86 111 76 116 76 192 77 141 72 166 74 228 70 182 71 167 67 162 66 181 78 159 65 184 68 148 73 130 75 100 64 165 62 228 63 172 61 266 59 224 55 154 52 20 82 6 112 107 110 85 130 59 131 62 108 82 109 94 132 64 133 45 141 81 143 97 146 26 148 29 144 10 139 66 142 86 138 82 137 80 140 72 134 4 135 53
12508 -3.54175 -1.42105 8.93965 164 108 113 1.81579 220 276 259 250 219 289 221 285 266 111
6087 -0.723365 -3.79808 7.3906 147 73 64 0.27281 79 141 81 157 477 224 32 336 31 318
9305 -4.63683 -2.83286 7.96761 171 134 135 1.24914 188 145 202 192 291 156 189 153
15737 5.84746 -3.52294 10.6191 39 29 23 2.10837 268 59 278 70 271 69 274 209 279 64 276 64 285 102 284 67 282 62 275 36 304 240 309 67 319 53 318 170 320 216 322 218 321 197 323 62 264 67 317 167 327 70 330 67 340 77 349 64 344 47 346 210 262 57
2884 -0.530457 -2.41355 1.99435 225 214 210 0.884235 439 6 117 168
12506 -3.91275 -1.3687 8.53467 145 92 94 1.28053 220 275 259 248 223 316
6085 -2.71002 -1.40608 9.80585 183 110 95 0.959952 23 311 24 366 30 328 45 102 32 313 31 293
2882 2.43702 -4.27385 9.27291 91 69 63 1.58672 118 11 119 15 123 13 427 115 117 125 347 146 358 203 425 126 436 9 116 108
9302 -0.984487 -1.66945 10.7895 174 172 173 1.10498 177 411 178 456 179 418 183 440 184 409 186 430 187 455 188 422 185 407 181 429 182 415 189 446 190 458 192 425 193 365 195 354 194 365 196 399 198 427 197 367 200 439 199 424 205 424 204 423 211 583 210 516 212 554 214 544 209 484 208 477 207 438 216 605 215 575 217 671 218 634 226 808 227 658 222 677 221 680 220 676 219 676 223 702 229 680 230 676 228 711 231 638 232 584 233 574 234 587 237 538 242 600 243 631 239 505 239 536 244 600 246 566 248 549 245 583 238 479 241 540 240 527 203 395 206 398
15734 -7.01844 -1.26665 13.4488 34 24 14 1.58231 292 411 322 417 255 265 205 228 254 276 311 353 310 339 318 309 323 404 196 243 327 400 330 221 337 345 299 273 349 341 348 331 353 316 352 323 359 381 346 313 361 289 360 394 368 381 367 397 371 359 372 393 382 267 385 290 203 208
2881 -1.17033 -3.78278 7.59564 175 113 118 1.57237 122 139 117 124 413 7 433 143 434 139 436 8 435 11 440 12 402 114 424 7 106 53 104 4 105 114 171 4 176 13 188 192
9300 -4.18594 -1.62218 7.91422 161 124 128 1.15946 168 91 211 217 210 59 212 199 214 202 252 225 249 202
15732 0.416697 -0.767099 11.2903 151 102 101 1.34854 308 286 323 346 298 384 314 245 315 313 316 327 318 305 319 335 320 338
2879 -0.568246 -1.03479 10.4401 173 101 89 0.825464 3 144 14 128 69 81 80 78 91 70 213 109 291 119 335 96 425 106 426 108 436 110 437 72 448 72 459 74 470 73 117 108 2 208 25 135 113 174 224 146 258 98 269 88 116 164 88 138 472 146 477 101 467 141 466 96 165 130 167 123 170 139 171 123 172 121 179 94 189 96
9299 4.85529 -2.61721 10.3293 117 78 67 0.571716 177 72 182 83 186 74 187 86 188 73 195 57 178 195 197 58 205 45 220 87
2878 -3.76003 -1.37547 8.41935 187 109 106 1.35698 302 154 117 104 74 102 73 96
2877 -1.16535 -2.07396 10.2716 166 89 75 1.10801 114 58 136 61 147 67 191 68 258 77 117 86 116 83 115 136 12 247 474 19 458 13
12500 4.78222 -2.17372 10.2845 132 81 71 0.625406 233 101 234 278 235 233 237 207 261 110 259 94 255 121 260 87
6079 5.55156 -1.67591 10.3087 79 42 39 0.452164 449 138 32 140
15729 -0.71882 0.566221 7.48724 90 35 31 2.02792 317 592 325 642 328 616 327 663 326 604
2876 2.05836 -2.91586 8.84041 220 155 143 0.654309 123 54 124 60 447 29 117 60 126 43 105 62 112 41
2873 2.50515 -3.09474 8.73855 204 138 126 0.64573 97 59 98 64 100 54 120 34 117 41 119 48 116 41 103 41 94 57 92 85 101 37 104 31 105 46 106 23 107 36 78 47 472 52 76 55 77 38 72 67 74 67 67 57 68 61 73 58 75 41 62 75 63 84 61 102 60 80 59 82 477 51 55 64 79 37 81 35 479 58 83 30 28 104 471 33 30 86 31 95 32 92 473 44 467 32 108 23 109 21 34 102
9293 -1.75719 -0.163973 10.4435 65 45 36 1.29615 177 457 178 506 179 467 181 477 182 464 183 486 184 455 186 472 187 504 188 465 185 449 189 487 190 500 192 467
2872 4.08759 -3.41586 10.1731 95 58 43 0.744356 128 16 117 31 78 30 81 22 82 19 112 18 157 40 159 49 160 39 164 51 177 44
6073 -0.686922 -1.75183 10.5109 178 102 89 1.1646 45 461 476 376 30 481 32 477 31 462 40 393 475 314
2870 2.07063 -3.09559 8.65898 206 141 126 1.52592 335 359 427 377 99 492 427 402 431 418 430 381 96 546 98 531 97 485 95 449 425 352 402 401 391 393 380 446 358 395 347 420 369 403 100 462 436 426 435 433 413 375 336 401 313 386 291 433 433 418 302 348 269 379 429 386 324 383 225 358 280 355 438 495 236 311 191 322 434 408 258 353 125 338 91 360 247 360 136 323 147 363 80 346 440 388 114 364 439 375 47 328 58 343 36 356 25 372 69 338 450 349 452 357 2 411 113 389 470 307 459 325 14 307 3 317 451 349 224 333 448 322 437 290 447 250 103 430 94 489 92 558 89 428 90 434 104 396 101 350 105 381 88 389 106 259 462 332 461 352 87 363 86 329 472 384 78 370 76 437 77 378 72 463 74 435 70 471 71 481 65 506 73 417 75 386 64 495 62 462 63 485 61 477 56 474 57 483 59 450 54 470 477 401 53 474 55 456 52 514 478 382 79 362 51 459 50 513 48 532 49 481 479 379 85 327 82 326 480 315 46 468 45 455 83 314 21 498 23 489 22 458 24 482 44 418 20 436 16 385 39 429 38 411 27 464 26 533 28 482 34 487 37 484 35 433 29 447 19 426 33 466 30 475 32 470 31 455 42 399 43 414 40 389 12 412 84 279 471 305 473 283 13 374 469 239 468 217 6 295 110 234 474 196 7 223 8 232 9 244 453 192 457 182 456 181 5 186 455 160 454 150 11 172 4 201 446 139 443 106 445 124 441 137 10 148 442 112
12490 5.02383 -2.50578 10.331 86 46 37 0.990823 218 507 219 478 221 472 222 477 223 570 232 439 234 423 237 391 244 470 248 442 241 391 254 415 252 422 261 364 219 113 221 114 228 314 230 119 234 273 246 114 253 265 259 432 260 424 257 421 263 325 263 326 265 444 264 416 262 371 267 432 270 511 266 427 271 408 268 453 272 419 273 383 240 378 274 383 278 438 281 411 277 371 279 426 276 204 283 415 285 302 282 377 275 337 296 516 298 106 306 91 312 91 325 71 326 83
18922 4.28038 -1.66366 10.4316 0 0 0 1.32068 382 429 407 532 415 443 399 402 400 465
6069 -1.99691 -1.60244 9.92212 167 98 81 0.887207 61 141 63 221 30 132 32 138 28 153 13 66
12488 4.74303 -2.90045 10.2328 98 57 41 1.50111 238 168 255 337 184 62 209 152 210 278 211 210 214 296 208 149 177 61 212 309 218 250 227 376 222 404 221 391 220 389 219 277 229 399 230 398 231 371 234 262 235 309 237 280 242 239 244 339 243 269 246 225 239 181 233 321 241 229 253 355 251 316 252 339 249 201 250 224 261 245 259 238 260 226 263 212 265 244 264 221 262 204 267 244 270 275 266 238 271 227 268 212 272 233 273 195 240 211 283 234 285 290 284 242 282 202 287 277 288 89 286 250 289 259 290 373 303 90 301 79 307 87 309 76 308 83 311 79 320 66 321 63
18920 5.21393 -4.01105 10.8796 117 104 97 1.38913 390 306 404 337 406 354 398 270
6067 -1.57292 -2.79733 9.97573 149 77 63 1.08866 26 90 28 96 29 73 100 463 30 83 32 83 12 67
15717 -3.06239 -1.47114 9.01189 197 119 109 0.671909 308 500 323 478 309 518 330 441 334 454 334 505 338 496 309 555 351 492 357 565 353 507 359 660 363 577 360 573 362 548 364 532 365 536 366 510 367 552 371 509 375 451 373 473 374 492 377 469 376 394 378 366 378 401 379 440 383 444 382 378 385 393 388 372 388 415 387 385 386 352 384 340 394 448 395 417 396 450 390 426 389 332 397 395 404 460 403 454 407 488 406 426 406 470 401 439 408 481 405 454 409 445 410 448 400 413 411 466 412 454 414 459 415 389 415 434 399 355 418 454 416 448 417 426 419 432 423 441 422 376 421 365
2864 0.912457 -3.18216 10.1597 161 98 84 1.60784 118 215 128 118 100 186 121 255 99 190 427 212 431 216 432 276 430 214 96 206 98 222 97 211 95 171 425 253 402 257 391 259 380 301 358 224 369 217 436 230 413 257 336 235 291 291 269 262 429 223 324 219 225 256 280 253 236 205 213 264 191 226 258 245 202 245 125 233 247 252 180 206 147 228 80 180 158 220 47 179 69 180 450 207 449 174 426 224 451 186 448 224 437 197 447 114 124 252 120 235 117 140 116 121 103 143 94 193 92 217 93 178 104 129 101 122 107 83 462 186 463 214 460 117 461 126 76 37 72 197 74 52 70 66 71 195 67 48 66 56 65 61 68 50 73 45 75 31 64 55 62 50 63 55 61 62 60 50 477 154 478 35 472 46 476 38 479 156 480 105 475 23 473 35 467 98 469 65 466 126 468 49 465 63 110 48 112 80 108 56
9277 -1.34334 -3.5585 8.34874 85 27 22 1.13044 179 128 181 233 188 247 173 19 175 253 176 36 178 296 187 16 167 27 170 29 171 25 189 220
2856 1.0708 -0.976547 10.6567 220 153 141 1.78206 1 649 2 513 14 410 25 448 36 430 47 427 58 452 69 438 80 462 113 498 128 460 224 436 335 461 426 456 437 400 439 444 440 455 448 427 459 427 470 411 3 417 126 488 127 444 129 379 130 371 132 349 131 340 133 312 141 402 146 452 139 359 143 425 144 400 148 500 154 522 155 505 153 479 152 481 156 500 151 482 159 586 157 514 163 540 162 552 160 527 161 542 149 472 164 563 142 382 138 336 137 354 140 357 134 325 135 293 457 297 444 286 456 282 443 212 441 217 442 188
6052 0.623017 -0.941753 9.93804 0 0 0 2.27685 44 441 45 480 59 459
2849 -1.71659 -4.63621 9.2632 61 26 31 1.56908 118 429 119 430 128 413 117 433 116 405 127 405 103 476 104 448 115 379 105 431 106 314 107 318 111 318 112 304 132 298 108 298 109 313 110 308 131 298 133 246
9269 6.64988 -4.55428 11.4587 111 96 87 0.768207 161 36 181 39 221 46
15701 2.78793 -1.89498 10.1836 183 123 116 1.14395 307 276 322 237 323 238 308 261 309 261 325 228 327 254 349 237 345 220 357 288 346 221 407 312 408 320 409 286 410 284 411 293 412 297 414 301 415 274 416 295
2848 -1.11256 -1.28546 4.11036 199 114 111 1.43045 224 397 126 441
9268 2.73658 -3.53239 8.78902 104 75 71 0.380212 171 241 172 185 188 142 189 151 190 244
2847 3.99365 -2.54574 9.79931 159 106 90 1.10646 118 417 119 418 120 427 121 462 122 430 123 481 124 442 128 401 126 431 117 405 116 390 127 391 129 324 103 454 104 420 105 402 107 293 96 567 81 409 82 384 83 362 151 430 101 405 97 539 98 557 100 517
12467 5.84694 -0.705649 14.0869 177 170 168 1.8795 246 468 251 503 252 501 253 572 254 538 261 553 249 486 250 515 255 565 254 579 261 595 263 555 259 576 260 571 257 513 265 566 265 605 264 550 267 626 271 545 266 600 270 639 272 559 268 560 274 564 276 509 275 504 277 519
6046 4.2797 -3.89597 11.11 34 16 13 1.13916 105 24 42 190 104 116 84 115
15696 -1.07538 -0.621236 10.8534 170 163 161 0.513927 307 151 322 120 323 131 321 104 344 83 305 145
2843 -1.44503 -3.47875 7.7624 148 85 90 1.83384 1 503 128 376 126 380 127 341 129 297 131 260 453 144 456 104 454 110
15695 4.48176 -1.09941 11.2893 154 101 89 1.31662 305 154 323 130 352 241 366 143 405 117 423 90
2842 -3.26901 -3.13724 6.10194 0 0 0 1.51336 136 294 158 288 169 284 191 285 380 372
12465 0.991245 -3.07458 9.97897 0 0 0 0.0941032 223 612 241 468
18897 0.915049 -3.56035 8.72933 179 105 100 1.29111 396 559 403 569 404 578 407 597 406 586 405 566
6044 -1.91598 -1.65021 9.86525 163 98 82 1.50977 35 218 54 116 33 246 53 135 42 163 41 167 12 98 13 67
9262 4.7563 -3.10997 10.3895 94 55 43 0.449904 170 77 171 73 188 64 189 63
15694 4.46298 -1.07774 11.2522 154 101 89 1.40901 298 155 305 155 323 129 352 240 377 249 405 118
2841 -0.975695 -3.19503 10.0036 152 68 58 0.970485 128 354 225 357 424 358 437 289 438 431 439 311 440 331 126 354 129 231 99 463
15693 -0.833602 -0.786112 11.0729 128 80 74 0.548496 312 129 323 126 331 228 334 125 337 127 332 114 338 118 342 121 341 120 349 106 351 108 354 125 353 122 370 144
2840 2.61532 -0.617847 10.7068 75 45 21 1.8664 58 300 118 355 120 406 121 398 122 400 123 415 124 386 25 248 36 293 47 292 69 292 80 293 91 289 102 293 114 285 125 300 258 274 269 330 324 334 347 332 358 314 369 335 380 365 119 362 119 389 123 448 124 415 336 316 280 275 247 278 302 264 117 341 117 371 116 359 2 221 116 328 115 338
6036 2.23405 -3.03018 8.79491 192 126 110 1.29501 35 89 53 85 33 88 41 55
15686 2.87413 -3.36782 8.85374 98 69 68 0.613988 311 33 323 27 325 34 327 36 329 35 331 31 326 35 330 31
2833 4.48509 -4.1891 11.7037 120 110 100 1.26356 97 341 99 320 100 321 128 111 126 243 95 296 96 292 98 356 116 238 127 189 129 70 103 271 94 333 92 377 93 314 90 252 101 230 104 238 105 240 115 156 107 154 106 141 111 144 87 216 86 168 70 339 68 315 85 190 112 144 110 120 130 62 108 130 109 127 132 112 131 63 133 84 134 86
6035 1.12198 -3.41253 8.54691 208 135 123 0.953684 44 32 33 67 20 53 30 64 31 73 40 146
2832 3.79045 -4.19792 10.7667 195 183 171 1.64404 122 223 123 270 124 299 432 225 434 144 126 237 119 124 120 134 121 158 225 127 236 90 247 124 258 121 269 119 280 189 291 216 302 185 313 214 324 200 336 224 347 232 358 212 369 202 391 199 402 198 413 191 424 219 425 131 427 198 428 196 429 207 430 201 431 121 433 149 435 160 436 149 191 19 380 235 118 129 180 17 202 18 213 22 438 23 127 233 128 287 440 249 369 262 380 293 391 242 402 241 347 288 130 194 132 197 131 162 133 139 139 187 141 253 155 404 159 481 143 280 145 313 144 226 146 283 149 328 142 220 138 180 137 206 140 183 134 177 135 150
18885 -3.68654 -0.426829 9.67807 160 118 123 0.534828 392 305 407 317 389 272
6032 -0.941254 -1.61677 10.4027 86 55 36 1.15046 28 545 29 506 472 450 78 467 76 496 77 440 72 548 74 514 70 560 71 562 67 535 66 554 65 558 68 538 73 504 75 440 64 549 62 514 63 544 61 530 56 533 60 526 57 534 59 506 54 533 477 502 53 539 55 520 478 482 52 564 79 424 476 435 50 579 67 541 70 565 72 552 48 590 49 543 49 553 479 468 82 416 480 418 83 399 44 472 31 523 43 482 84 373 471 389 473 377 475 352 469 339 85 422 6 357 474 298 4 265
2829 5.80816 -1.61796 10.1925 99 62 61 0.87291 380 204 126 201 129 41 145 74 148 106 143 122 150 93 144 52 153 77 152 98 138 64
12452 5.19857 -0.590848 12.1943 136 114 106 1.52238 251 158 261 394 253 183 259 149 260 141 263 357 265 387 264 365 262 246 267 393 266 386 268 351 272 148 270 175 271 151 273 122 274 149 278 282 281 279 277 252 279 297 276 129 285 193 284 151 282 122 275 217 292 597 287 176 290 191 294 503 297 485 293 501 295 460 296 534 300 420 297 417 299 431 307 495 309 491 308 479 311 451 310 402 312 481 314 496 316 484 318 473 316 332 321 368 317 273
18884 4.66363 -3.42324 10.5127 96 87 81 0.961764 390 48 392 193 393 170 394 181 395 159 396 198 397 179 407 304 387 61 388 60 406 296 408 310 409 280 410 275 400 252 411 288 412 288 414 291 415 266 398 210 418 340 399 204 416 205 417 260 417 316 419 122 423 258 420 199 421 254
6031 -0.95807 -3.89105 7.33183 157 86 81 1.6881 86 353 87 384 88 407 89 446 90 452 92 609 93 521 78 428 76 430 77 400 72 486 74 456 70 498 71 527 67 470 66 482 65 497 68 503 73 443 75 404 64 486 62 477 63 474 61 471 56 492 60 483 57 498 59 462 54 465 477 427 53 488 55 472 478 402 52 502 79 353 51 470 50 533 49 499 81 404 479 397 85 384 82 352 480 336 46 476 45 449 83 334 21 517 23 508 22 480 19 477 24 502 44 431 16 437 20 454 15 456 38 423 39 446 27 483 26 528 28 475 37 500 35 455 29 460 17 462 34 505 33 484 30 491 32 466 18 446 42 414 41 430 40 409 12 428 84 336 13 390 6 314 7 272 8 269 9 263 5 238 11 215 4 192 10 167
15681 2.49385 -3.75117 8.76552 79 53 50 0.685274 315 166 319 22 320 18 322 14 314 18 318 258 321 21 317 142 326 27 327 27
2828 1.03335 -3.09849 9.98879 194 124 114 1.10794 100 49 452 143 202 198 126 173 109 18
18878 4.48257 -1.36861 10.6014 145 105 100 1.6322 322 103 385 335 406 245 409 234 420 142
6025 -3.95556 -2.14671 8.47714 116 78 69 1.53576 56 222 478 72 66 125 73 84 57 128 72 107 68 104 70 122 67 112 479 186 34 157 28 254 37 249 33 139 43 237 42 156
12444 3.77049 -0.515202 14.7816 96 66 40 1.38469 223 222 244 295 261 312 264 280 270 334 266 311 290 209 296 223 304 318 262 146 298 312 305 330
18876 4.66228 -3.07689 10.1334 71 59 49 0.820821 392 188 393 168 394 56 395 49 396 69 407 222 397 51 404 75 403 65 406 76 401 61 408 226 405 66 409 70 409 208 410 188 400 53 411 77 412 76 414 70 415 57 398 47 399 46 416 66
6023 -2.12261 -1.56291 9.94651 166 103 88 1.53563 92 340 93 284 94 298 95 265 96 392 104 265 96 332 78 274 77 246 75 258 62 209 63 311 56 299 60 282 57 305 59 277 48 397 19 220 24 253 460 191 461 255 463 273 17 103 44 193 16 171 16 297 15 200 38 327 34 372 37 317 39 206 34 269 50 119 75 144 48 257 33 294 32 244 18 250 42 270 43 245 43 294 41 291 13 206 8 176 9 170 11 129 10 108
9241 -3.70129 -1.2253 12.2915 79 53 41 1.79774 171 476 186 360 166 499 167 519 168 466 170 508 187 377 188 316 185 369 189 359 190 360 192 322
2820 -0.422567 -0.71101 10.774 89 54 27 1.48261 428 172 58 163 302 168 324 185 347 213 358 191 369 178 413 171 424 198 425 117 429 89 439 223 440 181 313 195 80 153 14 185 25 198 69 209 438 144 91 183 102 194 114 195 125 200 147 200 158 195 3 199 36 202 47 207 58 258 335 237 459 205 470 196 439 106 169 230 136 237 25 243 91 241 125 254 147 245 470 232 459 242 448 242 146 262 148 314 143 221 150 297 155 314 160 342 167 246 167 377 150 252 166 362 170 151 170 373 72 309 168 215 148 264 154 284 171 214 171 336 142 199 172 249 174 272 174 330 175 284 178 273 433 201 184 91 185 166 189 184
12443 3.74039 -0.554515 14.8237 80 46 16 0.736985 249 245 250 283 251 265 252 281 255 175 261 304 265 300 267 316 266 298 292 539
18875 -3.01332 -1.53407 8.77739 146 73 64 0.435312 389 45 407 216 406 65 405 52
6022 -0.597853 -3.7595 7.44362 186 111 107 1.99689 92 188 95 15 96 17 97 23 98 19 89 15 90 102 88 9 87 76 86 53 472 103 78 86 76 124 77 153 74 144 71 40 73 27 75 109 52 199 79 72 476 108 51 168 50 191 48 196 49 189 81 85 85 89 82 73 46 172 45 145 83 74 21 179 23 171 24 34 17 232 20 153 15 154 39 38 38 134 66 29 67 27 70 38 79 12 22 155 37 47 18 223 42 194 43 209 41 206 40 140 84 69 471 78 473 76 475 58 467 159 469 57 35 45 466 118 465 90 474 28 468 44
15672 0.746689 -0.730834 10.3271 0 0 0 0.714911 289 628 315 564
2819 -0.373245 -0.968382 10.5657 182 110 98 0.673372 434 113 436 113 126 112 280 86 291 120 336 119 358 106 438 132 54 129 39 127 42 83 43 98 41 170 150 99 154 109 153 83 155 95 152 104 151 114 156 108 159 130 157 202 163 110 162 110 160 110 161 126 164 114 165 131 170 140 171 124
12437 1.62551 -2.66116 9.28834 215 158 159 0.824939 246 70 248 63 261 239 259 225 260 214 267 231 270 255 268 201 274 201 285 269 284 231 287 258 288 237 289 243 290 256 297 255 299 336 385 257 388 152 389 202 419 200 421 192
18869 -0.541375 -1.03018 10.7101 202 137 125 1.14075 397 93 403 109 407 129 396 217 406 126 401 99 400 94 412 115 414 234 399 84 418 103
6016 0.994858 -3.52743 8.35294 208 136 122 2.03998 45 473 29 445 10 184
2813 2.64518 -2.70064 8.86316 219 152 141 0.312888 3 48 80 54 91 45 147 61 280 57 428 62 126 64 427 50
12436 -2.35151 -3.22994 9.14462 165 95 87 1.25689 250 317 252 203 261 221 263 181 259 207 260 329 262 184 273 22 274 28 278 216 281 33 277 174 279 27 276 31 283 30 285 52 284 213 282 30 275 145 287 38 288 219 286 25 289 221 290 240 293 404 296 258 299 206 303 241 301 220 304 29 307 25 306 31 303 33 298 222 300 376 322 27 323 28 345 29
18868 -0.872369 -1.45823 10.5094 174 99 86 1.25104 381 98 403 293 383 282 385 280 386 293 382 310 387 358 401 285 400 262 398 221
6015 1.43753 -1.85577 10.7318 167 98 85 1.4238 15 507 16 487 35 511 39 494 81 462 82 434 85 443 480 433 74 534 86 420 87 455 88 473 89 516 90 516 92 666 73 523 75 461 93 582 79 446 83 423 33 537 30 541 32 546 31 534 18 502 42 466 43 485 41 484 40 463 12 484 84 393 471 408 473 397 475 368 13 442 468 329 6 368 474 317 130 370 109 343 7 335 8 322 9 320 5 299 11 275 4 281 10 228
9233 3.14707 -0.519319 12.9593 99 70 39 1.44055 181 269 182 254 179 198 185 237 186 249 187 267 190 275 177 235 184 233 188 232 199 360
15665 -2.06295 -3.38889 9.38492 177 93 78 1.23941 294 677 295 615 296 637 297 635 298 616 299 615 322 545 323 539 325 522 327 541 329 502 328 499 331 517 326 484 330 474 334 541 340 524 338 532 339 570 350 594 351 532 357 598 352 542 354 568 353 537 356 607 355 548 359 693 363 609 360 615 364 576 366 552 368 575 371 547 370 581 372 584 375 489 373 513 374 526 377 505 376 478 381 514 378 437 383 433 382 457 392 520 385 428 388 461 393 482 387 423 386 390 384 416 394 498 395 452 396 480 390 465 389 413 397 433 403 449 407 482 406 464 401 432 409 442 410 442 400 453 415 424 398 395 399 392 418 491 419 384 423 437 422 370 421 359
2812 2.63737 -2.69759 8.83687 219 152 141 0.320846 413 56 424 69 430 59 431 57 436 74 440 60 126 63 114 51 147 60 180 54 280 56 391 66 425 61 427 49 428 61 435 75 438 77 91 44
12435 1.36361 -3.28442 8.73337 169 102 104 0.79072 246 39 261 219 259 26 267 212 271 18 272 20 273 16 278 22 279 24 276 26 283 26 285 47 284 22 282 27 287 22 286 213 304 26 307 18 305 34 306 27 357 28 354 29 356 22 393 23 396 29 404 25
6014 -0.523643 -0.824004 10.4612 187 127 107 1.68227 26 176 27 168 28 176 53 307 23 314 55 291 60 340 64 328 54 308 29 242 30 152 40 239 70 325 56 305 52 341 51 292 34 330 37 333 67 303 57 362 59 286 22 340 56 356
9232 -2.29378 -4.19521 8.60003 125 87 93 1.25354 178 235 179 210 181 226 183 215 182 207 184 184 185 187 188 129 200 11 210 7 214 163 209 3 216 178 215 10 217 362 218 341
15664 -4.45721 -1.27704 13.3207 79 59 39 1.69372 301 625 292 704 293 613 299 569 290 565 286 564 323 526 339 555 332 462 338 553 303 625 394 477 395 437 390 447 389 397 401 463 410 464 411 486 294 628
2811 -2.63834 -2.68634 9.56188 135 83 73 0.651935 291 81 126 58
12434 2.80005 -3.77422 8.98098 177 161 154 1.36995 249 26 250 192 251 194 253 218 256 23 261 214 260 197 257 165 265 25 357 244
18866 -2.00856 -1.43569 9.63984 156 87 74 0.829679 396 82 403 82 404 95 407 100 406 100 405 81 422 32 421 33
6013 3.92573 -3.14021 10.2889 132 89 74 1.96837 15 508 16 488 17 518 19 538 20 509 21 577 28 557 34 563 35 513 37 557 38 484 29 516 33 539 30 543 32 548 31 536 18 503 42 467 43 486 41 487 6 365 474 308 7 330 8 320 5 297 11 273 4 278
9231 -1.108 -3.72521 7.64599 0 0 0 0.597479 3 97 450 108
15663 -2.49576 -0.497977 9.7548 214 141 132 1.35625 305 532 314 526 322 492 321 440 325 448 325 496 327 482 327 519 329 482 331 490 326 465 330 452 333 511 334 515 337 535 340 502 338 502 341 532 343 508 349 533 350 568 351 501 348 532 345 515 357 573 352 506 354 537 344 503 353 514 356 575 355 519 346 495 359 669 363 587 360 585 361 538 362 555 366 522 367 568 368 549 370 554 373 485 374 500 377 480 376 496 381 483 378 415 379 454 383 454 382 431 392 483 385 448 388 478 393 451 387 439 384 391 394 460 390 438 389 384 403 468 407 499 406 481 408 492 409 455 400 321 400 424 397 298 403 345 411 478 419 403
2810 4.15621 -3.39072 10.1081 108 73 60 1.44572 247 29 313 44 413 37 117 32 118 41 116 29 119 41 120 37 121 44 123 46 104 21 88 22 90 36 115 26 107 25 111 20 87 24 86 10 72 54 71 59 67 45 66 53 65 53 68 48 73 39 64 48 63 48 61 50 56 38 60 56 57 53 59 60 54 46 53 52 48 46 49 41 479 46 46 43 19 38 17 40 38 36 34 71 35 54 33 52 32 55 31 63 43 34 20 47 21 43 29 48 112 20 110 10 130 12 108 13 109 13 131 9 144 15 160 42 164 52 166 50 173 41 177 47 178 54 179 48 181 66 187 58 188 55 185 52 189 51 190 55 140 12 193 31 197 28 200 36 201 32 208 28
12433 4.33943 -0.307224 15.222 99 69 43 1.19655 249 266 251 179 256 159 261 186 250 298 252 297 259 175 260 171 285 232 244 187 287 208 292 289
18865 5.27636 -3.16502 10.3059 59 46 39 1.15108 395 57 397 63 403 69 404 81 407 83 406 85 401 65 408 79 405 68 398 58 399 50
6012 5.63532 -5.34994 11.0292 111 99 89 1.96811 425 452 428 474 369 474 430 493 431 489 291 503 402 480 391 474 236 408 269 488 433 485 432 487 438 567 439 445 258 462 380 519 424 485 450 458 213 473 324 488 413 476 202 450 225 462 445 220 443 214 441 218 449 432 169 442
9230 5.56384 0.0144495 14.7987 61 42 23 0.623179 165 271 184 180
15662 7.85846 -6.40221 12.5853 70 58 32 1.76401 309 337 322 484 323 476 321 386 325 440 350 341 344 289
2809 -1.37353 -3.92779 7.7068 134 84 92 1.31444 324 10 369 8 391 4 126 4 101 100 100 10 106 4 54 18 53 23 48 27 49 25 24 25 20 24 15 17 27 44 26 39 28 40 41 13 469 6 467 4 468 2 175 8 271 7 266 9 270 5 268 7 274 5 319 0 322 1 323 2 321 2 327 0 326 1 400 1 11 22
15657 -1.40355 -4.3854 9.13057 230 225 212 1.67731 319 466 320 484 322 437 315 432 323 465 321 424 325 431 329 416 328 417 331 425 330 382 328 453 330 418 331 463 333 481 334 489 340 484 332 435 337 514 338 479 339 523 342 545 339 564 341 556 343 531 357 628 345 566 349 583 350 614 344 528 344 554 356 631 346 511 363 664 364 624 366 611 365 631 367 645 368 634 378 502 392 578 384 480 390 516 399 446 422 487 423 535 417 517
2804 -2.91831 -1.46389 9.51143 185 116 103 1.71342 119 244 121 209 128 161 127 153 122 195
9223 -0.546801 -4.23415 7.64183 98 69 74 1.26223 176 5 184 4 222 7 227 5 221 4 219 3 223 5 229 6 231 9 235 1 237 1 240 0
15655 2.08482 -0.726108 12.1274 164 153 146 1.39222 316 392 322 419 321 299 323 350 325 314 328 362 327 403 331 312 326 297 330 320 327 348 333 422 332 381
2802 -1.29455 -4.1523 7.57748 69 38 41 1.94298 124 2 450 0 447 0 122 1 121 1 120 3 119 8 118 123 128 102 2 150 440 2 3 0 112 62 443 0 444 0 446 0 445 0 442 1
9203 -3.82476 -2.60128 8.19295 118 64 59 0.779846 164 393 186 274 184 300 188 301 185 302 189 291
