# 3D point list with one line of data per point:
#   POINT3D_ID, X, Y, Z, R, G, B, ERROR, TRACK[] as (IMAGE_ID, POINT2D_IDX)
# Number of points: 177, mean track length: 26.2079
699 -0.427704 1.94887 6.60754 92 43 28 1.3023 343 358 344 350 345 375 371 347 367 376 381 359 359 434 356 367 357 351 360 347 361 347 334 367 368 330 370 334 333 345 342 343 320 308 314 355 319 313 310 325 321 317 312 328 316 332 308 314 311 331 318 324 353 333 317 302 292 433 307 328 305 358 306 324 346 327 293 362 294 352 300 339 304 321 296 377 295 332 297 306 289 353 290 349 303 331 299 332 298 327 288 329 287 319 301 323 285 352 283 361 284 332 281 335 278 331 279 323 286 303 282 340 277 318 276 313 274 333 270 312 268 282 271 305 272 268 266 284 264 263
10322 -1.24045 3.38278 6.74991 192 150 140 0.866551 95 50 100 60 79 59 11 50
3901 -0.719994 2.26044 6.81607 118 71 53 0.779867 487 50 500 28
13551 -1.76407 2.49981 8.81379 230 225 211 1.88971 225 360 413 304 247 361 280 316 236 330 258 323 213 312 180 336 202 336 169 342 147 340 169 358 180 354 213 327 158 335 158 357 191 320 14 360 58 338 47 338 69 358 25 375 3 341 1 508 113 418 575 349 446 371 2 400 553 345 542 341
698 1.40108 2.88197 6.89254 151 106 85 1.07543 343 300 344 286 371 299 387 313 393 295 354 336 339 339 338 304 334 307 340 301 341 317 332 283 325 307 328 281 330 311 331 314 351 285 320 275 392 302 314 318 309 317 319 279 315 307 310 285 321 266 312 288 316 281 316 298 318 279 353 280 317 252 317 268 292 376 307 294 305 304 306 287 293 301 293 326 294 289 294 317 300 286 304 272 304 290 297 265 289 295 290 293 303 279 299 262 299 289 298 272 288 271 287 285 287 299 301 263 301 286 285 297 285 317 283 304 284 272 284 297 281 303 279 266 286 252 282 286 282 309 274 297 270 274 271 246 275 281 272 236 267 248 273 231 273 250 271 266 266 241
5497 0.232816 3.69318 6.56675 104 56 31 1.38722 499 356 500 417 505 386 485 444 493 340 494 319 503 375 506 372 498 314
2294 -1.5552 2.20298 8.0714 211 210 202 1.32437 393 315 399 356 401 335 410 361 409 357 397 299 414 349 416 379 415 356 417 368 418 363
13550 3.76593 7.02272 7.52587 236 226 204 1.64139 225 357 302 340 236 326 258 319 213 285 202 310 147 296 114 331 136 306 158 310 80 262 114 296 14 276 180 282 80 293 169 280 58 242 91 267 102 259 36 264 69 278 69 309 125 266 125 299 25 289 3 239 564 278 335 326 113 329 575 282 446 257 2 285 1 423 224 283 553 263 542 223
697 1.40032 2.88159 6.88553 151 106 85 1.23723 343 299 344 285 345 292 371 298 387 312 389 326 388 303 393 294 394 320 354 335 339 338 338 303 334 306 340 300 341 316 332 284 327 294 325 306 328 280 330 310 331 315 351 284 320 274 392 301 403 333 314 319 309 318 319 278 315 306 310 286 321 265 312 289 316 280 316 297 318 278 390 284 353 279 412 309 414 292 427 375 429 367 422 325 423 318 421 308 420 312 428 356 415 309 430 320 433 359 438 383 436 336 437 326 439 355 442 378 440 349 431 316 450 388 441 345 448 383 445 367 444 334 443 326 434 317 432 288 449 354 451 328 452 341 454 305 408 314 465 366 464 306 456 327 463 323 472 355 467 337 473 354 476 350 475 343 474 377 470 360 471 339 455 301 426 352 462 304 466 312 468 308 478 367 487 385 485 353 477 330 479 321 484 341 489 318 488 330 457 297 459 268 453 289 490 298 492 309 317 251 317 267 292 375 307 295 305 303 306 288 293 302 293 327 294 288 294 318 300 285 304 271 304 289 297 264 289 294 290 292 303 278 299 261 299 288 298 271 288 272 287 286 287 300 301 262 301 287 285 298 283 305 284 273 284 298 279 267 286 253 493 242 496 264 282 287 501 330 503 316 500 349 499 284 497 253 512 354 514 379 511 367 510 341 509 331 516 345 505 294 515 317 518 370 517 322 507 312 506 306 504 272 520 330 519 301 522 357 508 279 527 346 525 316 521 281 495 232 523 317 526 289 494 234 529 314 528 315 530 325 533 339 532 325 531 339 536 337 498 225 534 260 538 316 537 303 540 285 539 309
3899 0.0700025 1.30705 7.49621 237 225 230 0.850907 474 23 475 16 476 17 487 24 467 14 468 12 470 18 471 14 477 99 467 163 481 115 486 16
13549 -0.81899 3.0403 6.2208 85 63 55 1.52081 225 355 324 286 358 318 302 322 336 302 402 290 336 272 347 258 369 229 380 259 413 252 424 265 358 254 269 336 247 356 280 293 236 342 258 297 213 281 180 346 202 352 191 314 69 364
696 -0.727285 1.42131 7.17597 221 215 206 1.61065 406 84 407 99 409 104 371 163 410 9 382 172 387 173 389 19 389 185 388 14 388 166 393 150 394 176 362 108 364 12 360 15 392 160 399 111 398 168 400 15 401 9 401 161 403 11 397 85 405 12 396 102 438 116 437 11 439 188 440 105 441 97 448 13 450 116 441 231 445 9 434 159 449 10 408 106 465 96 463 11 467 97 473 13 474 18 462 15 466 10 478 8 487 119 485 121 477 12 481 110 486 10 484 13 489 88 488 166 490 66 501 96
8713 -0.276549 0.755309 6.79915 198 149 111 0.540725 157 232 173 192 156 228 152 229
2292 3.49226 1.15116 7.73727 226 219 217 0.550546 392 112 398 27 406 24 397 21 396 23
3898 -1.32744 1.73851 6.98378 186 138 111 0.375451 478 122 487 22 479 101 481 19
695 1.9763 2.5961 6.5791 187 130 101 1.6882 382 145 383 134 389 150 387 138 384 140 386 127 385 153 388 138 393 123 357 83 355 151 399 152 392 138 401 137 398 142 405 80 404 146 426 208 427 211 416 147 428 195 418 149 420 148 421 143 422 145 423 142 415 133 439 211 437 142 448 219 419 130 454 168 483 175 485 155 484 153 456 184 510 185 512 193 519 158 518 154 517 120 523 175 530 135 531 125 532 118 536 112 533 121 534 91 538 110 537 108 264 54
5494 1.70806 3.03079 6.75186 150 91 68 1.55039 507 348 517 363 339 366 340 324 398 349 401 341 309 336 308 301 390 321 379 310 405 342 404 332 414 331 425 447 427 392 426 387 429 383 416 364 422 363 423 355 421 348 420 348 418 347 428 373 417 349 415 343 430 359 438 423 436 375 437 361 442 414 440 388 450 405 441 380 448 420 445 408 444 377 443 367 449 371 451 368 452 381 419 328 454 340 465 383 461 353 464 344 456 363 463 359 472 394 467 376 473 389 476 386 475 378 474 417 470 393 471 375 455 336 462 335 466 346 468 340 483 443 478 388 482 375 487 425 477 363 481 374 486 373 484 381 489 365 457 334 459 301 453 325 460 287 292 445 307 316 305 343 306 311 293 350 294 336 300 326 304 306 289 341 303 315 299 316 301 308 281 325 279 291 493 288 496 307 282 327 503 333 501 349 467 393 468 359 512 393 497 295 514 418 514 440 511 404 511 427 510 358 518 413 520 377 506 324 506 345 522 396 519 344 508 314 495 270 521 327 494 275 533 372 498 267 531 398 532 372 536 366 540 340 534 297 537 337 539 330 539 349
8712 -0.39887 1.41793 6.26964 133 81 76 1.00245 157 225 159 281 160 242 161 212 162 221 163 211 164 208 165 215 166 207 167 234 156 214 152 202 153 196 151 217 150 220 141 218 149 174 143 182 139 182 138 185 137 208 132 217 133 195 135 192 140 180 128 182 126 159 127 173 121 200 120 189 119 188 110 180 101 149 89 175 87 178 88 153 78 183 85 147 74 173 86 146 72 157 73 153 67 185 65 162 67 158 71 162 66 140 86 109 62 127 60 122 60 156 45 140 44 133 41 89 578 31 9 33 576 34 580 31 573 31 571 92 569 37 570 33 579 31 577 31 572 29 574 33 567 35 565 38 568 31 581 27 560 44 562 102 563 34 561 36 557 89 558 44 556 40 554 39 559 26 555 42 552 30 551 42 547 36 550 29 548 35 546 40 544 33 543 45 549 29 545 35 513 52 524 37 541 42 535 33 491 49 502 50 469 60 447 55 424 61 435 44 413 55 380 126 402 116 480 46 336 64 391 117 358 59 458 42 369 114 324 99 347 55 302 116 291 59 313 105 225 125 269 69 280 58 236 115 258 62 213 54 180 61 136 61 202 54 169 56 114 61 147 56 158 63 80 51 191 61 14 111 58 62 91 50 102 58 47 92 36 58 125 57 25 52 3 114 1 93 564 114 335 136 113 138 575 105 446 116 2 129 224 124 542 96
2291 -1.58063 2.21088 7.9755 215 214 205 0.934692 401 356 423 384 419 363
10318 -1.30598 1.45058 7.54636 0 0 0 0.752688 103 12 126 14 127 19 129 16
3897 -0.158863 0.777293 6.68628 191 145 119 1.18694 438 207 483 128 487 7 486 98
13547 -0.305537 0.746174 6.68545 207 161 122 1.41274 402 267 458 219 269 231 247 246 280 245 258 244 47 249 36 246 25 277 1 404 224 268
694 2.4731 4.25531 7.13993 119 91 66 0.90565 371 85 367 109 356 108 355 109 368 94 370 96 278 92
8711 2.46857 4.68485 7.52831 0 0 0 3.34603 157 204 179 224
2290 0.227098 1.30211 6.87202 0 0 0 1.02818 319 86 339 116 337 122 351 101 296 130 338 116
10317 0.556619 1.2266 6.83931 115 72 64 0.432264 106 24 79 14 81 28 577 16 581 17 562 22 558 27 556 24 554 28 552 19 551 23 550 16 549 16
3896 1.27211 -0.788931 8.54357 121 86 91 1.00159 475 351 476 358 487 393 482 339 483 406 485 361 479 331 486 335 484 348 489 325 488 337 490 304 492 322
693 0.542383 3.81343 7.265 125 74 50 1.11373 343 92 344 83 345 104 372 77 378 151 371 77 385 92 384 84 387 86 386 83 389 83 388 83 393 70 381 101 364 87 362 92 363 108 359 127 366 80 339 96 361 82 338 98 334 83 337 95 341 87 377 80 368 85 332 74 333 73 326 94 327 89 323 76 322 93 330 85 331 90 342 81 329 79 320 75 392 78 314 88 309 85 319 71 315 73 310 68 321 74 312 77 316 86 308 72 311 85 318 89 390 57 379 146 317 70 307 150 289 93 290 89 288 90 287 88 279 130 281 139 282 147
13545 0.473762 1.98678 6.96855 162 99 79 1.12009 225 201 447 224 247 201 236 174 258 180 213 174 180 149 136 181 202 188 169 190 114 158 136 112 169 149 147 130 147 164 158 186 191 143 14 191 58 139 91 140 102 113 47 131 47 172 36 166 69 145 69 184 125 143 25 200 3 148 1 166 564 144 335 175 113 183 575 135 575 184 2 116 553 134 553 173 542 86
692 1.56456 1.71396 6.45411 165 120 97 0.555384 410 31 371 44 362 48 363 53 356 62 354 70 355 59 377 41 370 50 401 35 309 44 353 66 416 31 422 32 423 26 421 24 418 22 417 24 437 18
3894 -1.43509 1.67907 7.08841 102 70 55 1.04556 462 86 483 142 345 286 411 271 406 241 383 243 389 268 359 351 403 270 415 242 436 232 482 13 487 19 485 14 481 114 484 16 453 140
7112 3.14272 1.39654 7.78784 129 98 86 0.704993 234 25 237 17 238 24 243 20 249 20 232 103 252 14 253 19 254 14 255 18 230 28 231 110 229 108 228 106
13544 -0.0130954 1.38988 6.69774 138 71 44 0.685234 544 174 547 167 269 199 247 200 169 187 114 196 191 182 102 177 25 198 1 294 113 230 2 214 224 189
691 0.809676 0.974548 6.82735 186 133 106 1.25145 344 2 371 5 388 2 367 119 365 2 364 2 366 1 368 102 370 2 348 2 349 2 421 3 420 3 346 3 352 0 289 8 299 3 281 8 259 4 257 6 226 28 223 13 222 15 220 10 218 17 221 13
2286 -1.42688 1.45231 7.55398 216 215 208 0.879466 372 301 390 272 379 274
7110 0.0934433 2.18408 7.4194 84 28 6 1.1256 251 54 253 52 254 44 232 63 226 235 223 116 229 57 222 136 210 146 218 131 209 145 214 137 212 181 217 126 221 121 211 66 207 145 208 192 215 173 206 172
13542 0.913509 2.46379 6.8506 171 108 77 1.16737 4 246 269 168 573 192 169 52 158 61
689 3.22582 3.14659 6.82823 175 136 106 1.1747 376 433 406 351 373 352 385 385 382 371 387 367 386 355 393 362 392 362 390 346 404 359
13540 0.0106138 0.740419 7.69877 85 47 49 1.54663 225 152 380 20 391 18 291 21 269 144 247 191 280 173 258 134 213 163 180 89 202 90 169 11 114 101 114 183 147 10 158 18 80 77 291 140 191 85 14 88 58 89 91 18 102 10 102 137 47 119 36 77 69 133 125 91 25 141 3 91 1 229 564 93 575 123 446 90 224 89 553 126 553 164 542 109 2 161 113 104 335 106
687 2.88939 1.41607 7.47659 228 216 206 1.8883 345 129 374 187 375 201 376 222 378 186 373 163 343 129 344 114 371 208 385 182 382 179 383 171 384 172 386 156 367 194 394 223 388 203 381 198 364 186 362 178 363 210 356 129 357 122 354 130 355 136 360 133 361 174 350 123 341 42 377 208 332 27 333 34 348 117 351 38 342 116 349 98 379 171 353 36 427 51 426 51 429 44 416 35 406 42 422 51 423 49 421 45 418 51 417 36 434 37 419 43 346 104 352 119
8703 -0.554712 1.71165 6.21939 170 119 118 0.463373 171 31 174 41 156 47 155 51 152 46 151 43 150 48 144 26 143 33 142 32 139 32 138 36 137 33 133 47 135 45 124 40 107 36 106 32 105 38 104 29 77 38
2282 3.05301 1.39361 7.42406 188 168 161 0.807965 392 119 411 124 390 29 409 130 410 127 407 127 415 106 408 139
3888 0.0275555 1.01517 6.70636 187 136 108 0.626533 445 287 455 243 520 244 521 173 538 189
7106 -0.865642 1.39679 7.30653 93 42 32 1.03854 250 25 256 23 232 43 207 30
13538 -8.43765 6.81179 9.66291 30 29 22 0.852694 6 110 576 183 202 209 91 158
685 -0.00310559 2.45454 6.6274 182 126 100 0.682769 406 64 409 65 410 75 373 75 371 64 385 70 382 67 383 129 384 71 387 70 386 73 389 64 388 67 367 157 393 56 394 72 381 83 354 100 366 137 350 143 368 68 370 67 351 130 349 112 392 63 399 82 398 76 395 117 400 68 401 61 403 64 390 46 397 119 379 80 405 73 404 74 412 65 414 57 396 66 427 65 426 63 416 62 422 64 423 68 418 62 428 56 417 61 415 48 436 136 439 60 440 57 431 52 450 68 441 55 445 59 432 113 419 125 408 73 470 126 352 136 500 53
7105 3.55781 1.1428 7.66299 218 206 193 1.40654 234 7 237 6 238 9 241 5 243 8 245 8 232 16 230 14 231 12 233 8 226 141 223 9 229 101 235 6 227 102 222 9 228 98 220 103 210 108 218 97 219 94 209 113 214 109 212 111 217 93 216 95 221 11 211 117 207 107 208 104 215 96 205 7 199 99 200 96 198 136 196 99 204 4 194 112 201 89 195 98 197 113 189 121 185 7 187 111 186 95 192 91 183 6 183 105 184 81 182 85 188 87 179 86 193 83 176 93 175 63 172 86 170 11 173 85 167 5 168 7 171 88 178 82
13537 2.9803 1.62845 7.26315 170 112 88 0.350309 391 23 269 108 247 109
684 -0.457346 2.52601 0.754049 88 39 28 0.875968 343 89 374 62 373 67
8701 0.273457 1.19091 7.01655 0 0 0 0.665583 157 30 206 118 207 128 208 117
2280 0.0589521 1.40516 7.34036 87 56 62 0.997897 382 11 383 12 384 15 398 14 400 17 390 10 377 10 381 16 397 12 379 12 396 10
7104 4.27735 1.04934 7.77225 170 146 138 0.423249 250 3 251 3 232 9 230 10 226 16 223 7 229 7 227 9 228 9 221 7
13536 -1.06326 3.65663 6.63241 99 68 56 0.388729 269 91 280 77 258 127 1 206 113 160 2 149 224 137
683 -1.46995 1.79901 7.01033 158 122 93 1.0553 345 64 374 128 375 142 373 45 385 40 394 39 356 136 357 130 315 137 314 139 316 136 353 121 442 123 441 109 445 112 444 98 476 109 475 105 474 136 470 100 471 98 292 59 307 51 305 58 306 55 304 49 288 162 287 129 493 10
10306 3.49933 1.02513 7.4411 70 53 59 1.48007 74 264 78 258 82 239 84 240 87 269 88 235 89 259 90 245 92 285 95 204 96 244 97 221 86 221 98 238 79 229 73 243 72 247 94 229 75 248 67 279 65 299 81 248 83 253 71 255 93 202 66 249 76 234
3885 -6.93406 1.41349 11.0237 101 74 40 1.73424 463 178 468 157 470 192 478 219 482 191 464 196 471 230 476 201 464 43 467 184 477 180 481 205
7103 5.20571 6.8225 17.7736 0 0 0 1.888 260 354 272 344 271 364 261 410 273 347 270 389 274 401 257 373 249 350 255 360 254 352 256 394 259 377
682 1.23698 1.4379 6.47931 206 164 140 0.466155 409 7 410 8 373 19 411 12 385 5 382 7 383 6 384 5 386 9 389 16 388 11 381 12 399 9 398 11 400 13 401 8 397 8 408 9
8699 1.15645 0.581284 7.45551 227 213 199 0.331661 174 1 156 1 155 5 152 5 151 3
2278 -0.0193292 1.90252 6.67169 118 62 40 1.06685 316 410 375 421 376 463 377 393 378 416 381 403 379 384 317 377
10305 0.698355 3.90274 7.93695 80 34 16 0.917602 74 253 78 251 82 233 84 235 85 230 87 273 88 229 89 252 90 239 92 305 95 224 96 265 97 217 98 233 86 214 99 209 79 222 94 233 75 243 81 241 83 247 93 224 76 228 77 206
3884 0.693662 0.60814 6.95193 173 120 104 1.04955 461 207 463 209 466 192 482 172 487 113 485 196 486 107 484 188 500 93 510 161 509 180 516 95 505 60 517 76 520 4 518 4 519 5 522 106 523 91 529 3
681 1.04071 1.26919 6.59725 152 109 90 1.02914 343 110 344 5 373 7 385 115 384 3 363 15 354 9 326 7 328 9 342 98 412 6 414 7 423 3
2271 0.518441 3.76487 7.21537 132 80 59 0.821293 315 161 316 156 319 125 320 130 321 130 366 150 308 125 318 157 317 139 331 151 289 160 290 150 288 146 287 144 285 160 374 156
7095 0.965646 2.71469 6.79255 95 50 29 0.668523 261 394 244 339
13527 3.25674 1.36975 7.99511 45 31 48 0.252671 535 9 269 6 280 5 258 4
674 -0.465479 3.03357 6.66364 157 116 87 2.98179 410 216 375 289 411 241 330 264 420 194 415 182
8691 2.94282 1.61375 8.77697 219 208 193 0.833158 160 309 164 267 165 283 166 272 167 300 168 298 170 303 173 282 157 278 156 272 154 286 153 248
2270 0.0339134 2.70197 6.64684 162 107 79 0.613743 381 161 383 65 384 77 385 81 318 149 382 146 417 128 438 155 440 147 441 194 474 171 487 154 488 124 292 168 496 88 503 120 497 116 512 67 514 78 511 82 510 70 509 70 505 37 515 59 518 152 517 49 507 66 506 42 504 45 520 120 519 107 522 146 508 60 525 59 521 102 523 121 526 63 529 65 528 62 530 134 533 120 532 116 536 42 534 89 538 40 537 45 540 85 539 104
3876 0.287092 4.45478 7.09383 130 88 71 1.30081 466 374 483 473 463 367 464 375 465 413 472 426 465 391 467 403 470 425 471 407 473 416 474 448 476 411 478 440 482 406 485 423 479 397 477 392 481 410 484 407 489 388 490 366 492 385 493 315 497 321
13526 -10.098 9.22247 9.59895 11 9 7 0.854895 225 374 236 345 258 335 213 324 324 334 180 350 413 370 336 348 402 366 347 340 358 365 136 351 369 342 380 376 202 355 169 355 114 375 147 336 158 355 80 338 191 334 14 354 58 335 91 330 102 332 47 336 36 329 69 355 125 342 25 361 3 337 1 493 564 348 335 399 113 403 575 346 446 359 2 388 224 355 553 329 542 328
673 -1.20884 2.24683 7.01321 146 97 77 1.68887 343 255 344 235 345 232 375 285 359 331 339 286 360 251 338 252 334 250 337 285 350 232 340 239 341 262 333 244 326 256 327 267 325 263 328 259 323 254 322 290 330 260 351 211 342 241 329 238 320 201 314 243 309 262 319 201 315 234 310 230 321 241 312 220 316 226 311 257 318 230 353 205 317 203 292 301 307 246 305 234 305 270 306 203 306 236 352 212 293 231 294 188 292 223 293 179 300 221 304 201 296 204 296 254 295 163 295 205 297 194 289 238 290 218 303 216 299 191 298 205 288 211 287 166 287 214 301 205 285 197 285 237 283 199 284 217 281 225 278 215 279 207 286 194 282 230 277 201 276 199 268 143 271 147 272 147 275 205 267 183 273 141 266 176 261 234 265 176 265 211 264 150 264 186 256 185 259 216 259 246 260 191 257 163 255 167 252 189 251 170 263 195 262 186 253 171 254 159 250 175 249 155 246 170 245 186 243 192 241 166 240 151 242 174 237 202 234 227 244 166 232 126 230 74 231 69 233 119 233 199 226 172 229 135 235 191 227 133 228 132 218 139 221 174 219 200 208 226 207 232 206 216 198 76 204 61 203 57 201 54 195 197 194 227 194 195 192 158 183 57 184 42 182 40 188 187 179 151 181 40 193 140 175 123 172 187 173 144 174 184 164 44 152 49 150 51 153 101 145 48 148 50 141 47 146 35 143 36 142 35 92 50 88 29 82 37
2269 1.44318 1.40075 6.54391 192 148 119 0.183738 337 128 338 122 339 122 318 115
11892 0.68421 2.11574 6.86317 139 76 45 1.71502 9 32 21 109 26 209 11 27 27 173 35 220
5471 1.31911 0.0911537 7.64728 69 46 57 1.45734 500 336 509 299 504 304 508 241
2268 1.44318 1.40075 6.54391 192 148 119 0.183738 337 127 338 121 339 121 318 114
671 1.22365 1.45697 6.54973 202 160 136 0.700402 374 182 406 166 375 198 407 185 409 174 410 175 411 185 389 182 367 187 393 148 394 173 354 181 350 169 377 165 370 162 351 156 392 161 399 180 398 169 395 146 400 165 401 165 403 184 390 132 397 143 405 176 353 153 404 165 412 175 414 161 396 156 427 191 429 182 416 187 422 177 423 175 421 177 420 175 418 177 428 174 417 167 415 165 419 155 408 187 352 161
13523 1.04267 1.04709 6.75692 217 165 135 1.20997 324 296 225 341 291 363 302 347 313 327 336 325 347 320 225 362 358 346 369 326 380 359 391 321 402 349 269 328 247 351 236 331 258 305 213 293 180 324 136 316 202 338 169 325 114 344 147 305 158 319 80 309 191 304 14 334 58 308 91 303 102 296 47 311 36 301 69 326 125 311 25 336 3 309 1 463 564 321 335 372 113 374 575 327 446 335 2 359 224 325 553 304 542 300
670 -0.69899 1.88057 6.57617 134 87 78 1.65514 343 221 344 195 372 50 374 53 376 69 375 151 373 59 371 52 382 44 383 38 384 48 367 68 393 197 389 193 394 229 354 81 368 53 351 64 349 47 316 61 379 129 353 70 422 18 421 107 420 16 442 30 450 22 451 18 452 12 454 88 456 93 455 77 457 63 453 79 292 219 293 174 294 183 300 218 296 200
3872 -0.882794 3.48221 6.60915 201 152 130 1.24537 425 186 426 212 475 79 454 221 456 230 478 167 487 77 477 79 481 157 488 135 518 73 507 73
669 -0.440968 1.34371 6.38167 118 62 56 1.56728 345 168 375 116 337 176 370 158 323 97 348 151 399 107 395 81 309 28 316 110 418 169 403 175 417 88 415 157 400 97 346 131 295 29 292 40 297 28 278 32 281 117 282 123 274 35 270 48 273 37 256 27 255 107 251 33 253 99 254 23 245 41 239 50 248 43 243 42 411 100 389 9 244 32 220 40
2265 0.149025 3.24135 6.55693 168 117 89 0.24799 407 81 318 83 410 86 411 81 414 69 421 77 420 82 415 59
10292 0.494461 4.04512 7.10718 165 92 64 1.16511 89 194 90 180 92 226 95 162 96 195 74 192 82 192 84 187 85 179 87 215 88 184 97 157 72 169 73 169 70 217 94 169 83 186 83 208 59 199 93 154 54 168 50 169 51 160 48 190 49 167 63 169 46 176 19 199 16 184 12 192 13 171 9 189 7 192 8 203 10 218 6 194 11 211 4 218 582 198 583 160 585 181 578 193 576 180 52 207 584 163
3871 1.50661 3.01608 6.86437 122 73 57 2.05726 468 358 483 459 406 349 407 375 409 362 384 346 389 382 388 360 393 351 472 414 474 434 476 400 473 405 455 361 478 429 477 383 460 309 509 385 510 377 495 285 528 369 536 368 534 314 540 339
13521 -0.527246 1.85592 6.24345 118 75 60 0.502885 225 131 302 75 413 68 447 69 458 55 480 56 435 55 435 153 247 131 236 71 258 73 213 60 180 72 169 69 147 66 158 76 269 128 91 62 102 68 14 72
668 -0.744155 3.94593 6.95169 109 80 71 1.02488 345 148 375 99 394 91 383 74 365 104 364 92 362 94 363 110 357 98 354 162 367 102 350 86 368 89 370 88 348 81 349 63 320 131 314 92 319 127 315 82 321 131 312 82 316 92 308 128 318 162 353 134 317 141 307 152 305 161 306 137 346 75 352 144 304 131 303 142 281 81 278 142 279 134 282 150
2264 0.4785 1.32528 6.84762 105 56 34 1.11484 359 20 318 16 317 14 307 20 303 16 285 17 283 113 284 108 286 18 309 175 308 145 252 17 251 109 253 94 254 98 249 98 241 101 226 159 230 212 231 184 229 120 227 120 228 119
10291 -7.05824 5.01275 10.2747 78 53 34 1.47047 132 204 135 196 74 185 128 171 73 165 75 178 59 195 39 213 38 209 34 198 37 194 543 250
3870 -0.0108485 4.02241 6.17905 80 54 38 0.639416 462 183 466 181 468 175 463 199 472 211 467 205 478 179
7088 0.513376 2.37297 7.5183 82 31 7 1.29424 234 192 275 155 232 179 231 198 233 167 214 191 221 210 199 173 200 177 198 220 196 178 203 184 194 193 189 242 190 206 192 189 184 161 182 152
667 2.84633 2.29814 6.75965 191 143 114 1.26223 343 72 375 80 362 141 356 74 357 76 334 59 341 67 377 60 328 57 342 64 314 64 309 145 315 57 310 118 312 132 316 71 311 138 307 67 305 70 304 60 288 66 301 65
8684 -1.17446 2.64694 6.71369 152 109 101 0.444129 163 42 203 127 157 55 155 58 132 52 133 55 134 47 129 39 128 57 131 43 130 51 127 42 116 43
2263 1.93274 1.16605 7.04773 242 216 204 0.86289 319 9 344 6 318 13 342 100
3869 -1.83279 3.68097 9.30318 117 115 118 1.4931 468 390 483 493 442 462 454 385 448 464 452 435 465 433 461 406 464 398 456 412 463 413 472 447 467 427 473 439 474 469 475 426 476 430 470 444 471 427 455 391 462 388 466 395 478 463 482 426 487 478 485 445 477 417 481 428 479 414 486 424 484 426 489 416 488 420 490 391 453 369 492 408 493 341 496 367 501 395 503 376 500 418 499 357 497 349 510 411 514 473 509 414 516 431 505 387 515 404 518 465 517 414 507 395 506 373 504 356 520 424 519 395 522 443 508 356 527 438 525 406 521 380 495 316 523 406 494 321 526 376 528 399 498 315
666 1.56916 2.03306 6.44662 160 114 88 0.921525 406 125 375 73 407 137 409 144 394 131 399 193 395 109 400 127 401 129 403 63 397 116 405 136 404 138 396 130 426 152 423 53 418 231 417 214 430 56 433 51 438 273 439 56 440 52 445 53 443 41 451 228 408 152 465 128 464 99 463 119 461 172 472 131 473 208 476 197 475 193 474 230 470 191 471 122 455 204 462 45 466 36 483 160 487 55 485 143 477 177 486 48 484 139 489 40 488 47 457 192 490 82 492 160 496 121 501 163 500 180 497 106 514 199 516 170 505 123 515 150 517 155 507 101 520 176 519 150 527 189 525 104 522 129 521 88 523 111 526 99 494 99 529 169 528 164 530 173 533 169 532 165 531 180 536 160 498 94 534 127 538 152 537 145 540 127 539 149
7086 -0.342715 4.60654 6.90824 119 86 75 1.57425 234 100 237 80 239 110 306 86 244 93 232 92 233 77 210 104 219 88 220 97 209 107 217 87
665 -0.0514998 1.66571 6.96255 126 73 50 1.65753 343 131 344 117 339 134 338 49 350 126 340 43 341 44 368 38 332 29 333 36 326 43 322 139 342 39 329 113 349 101 320 156 314 135 319 150 321 111 316 45 317 115 292 53 293 49 294 51 300 129 296 52 298 37 283 52 272 55 264 41 251 44 262 40 250 45 246 46 245 46 243 48 242 46 244 38 229 46 220 50 221 45 187 64
13515 -8.64734 8.57139 9.03566 20 16 8 1.41066 291 378 302 361 313 339 324 324 336 338 347 330 358 357 369 336 391 330 402 357 413 360 424 363 435 348 447 352 458 292 469 339 480 293 491 339 502 338 513 366 524 315 535 330 225 375 269 353 247 375 280 328 236 347 213 326 180 352 202 357 169 357 147 338 158 356 191 336 102 333 125 344 136 353 258 321 80 340 114 376
662 -0.0870983 1.64699 6.74805 100 49 25 1.15673 343 51 344 38 345 57 374 25 373 111 371 25 385 22 382 113 387 22 386 25 367 52 381 130 368 21 370 24 395 18 401 26 397 25 396 30
661 1.3026 1.39156 6.54539 166 124 100 0.56703 378 6 407 101 375 7 384 7 387 10 386 10 381 13 362 16 359 30 356 20 357 16 354 28 355 23 360 17 361 20 338 23 350 17 340 19 377 4 368 115 370 114 325 18 330 16 351 16 349 15 309 32 319 13 315 24 310 20 321 14 312 19 308 24 311 28 412 91 414 86 292 28 307 27 305 20 306 21 346 11 352 10 293 23 294 20 300 21 304 24 296 17 295 19 297 20 290 21 303 22 299 19 298 16 288 21 301 24 283 25 284 21 281 111 278 23 279 21 282 18 277 41 276 103 274 40 270 42 268 32 271 38 275 109 272 30 273 42 266 26 261 124 267 92 265 114 266 27 268 33 271 39 273 43 274 41 270 43 272 31 264 20 256 32 256 33 259 115 260 99 257 27 257 28 255 28 255 29 252 115 251 28 263 93 262 20 253 28 253 29 254 27 254 28 250 30 249 104 246 118 245 124 239 42 248 35 243 120 241 104 240 97 242 106 238 34 237 28 234 118 244 110 232 36 230 41 231 33 233 103 226 55 223 36 229 36 235 27 227 123 222 36 228 33 220 28 210 135 218 40 219 31 209 135 217 29 221 30 207 137 206 122 198 53 196 121 194 133 197 54
2253 0.124738 4.7779 7.53281 125 106 94 0.913719 308 82 312 88 315 98 316 102 321 137 311 100 317 81 305 167 292 274 300 148 297 141 289 105 303 147 288 101 287 101 301 177
7077 -1.10308 1.99262 8.42857 0 0 0 1.82317 248 349 267 333 264 313
13509 0.428669 0.713166 6.90379 213 155 118 0.70534 291 314 302 299 313 282 324 264 336 286 358 298 225 313 269 303 247 324 280 275 236 285 258 280 213 265 180 262 213 233 136 250 169 260 147 242 147 274 158 254 80 272 191 255 191 281 14 294 58 274 91 276 102 242 47 246 47 281 36 276 69 292 125 278 25 303 3 276 1 432 335 341 113 337 575 293 446 267 446 302 2 332 224 292 553 274 542 231 542 266
656 0.622802 1.79938 6.89025 168 120 105 1.44825 343 380 344 372 345 395 372 391 373 361 371 366 385 400 384 362 386 372 367 398 393 369 365 401 364 383 362 379 363 418 359 461 356 385 357 371 354 408 355 377 339 416 360 373 334 389 337 411 340 376 341 394 377 367 368 354 370 352 332 363 333 370 326 390 327 398 325 395 328 380 323 384 322 414 330 389 331 386 342 365 329 358 400 378 314 400 321 361 311 378 390 361 353 348 421 388 432 359 289 403
11873 -2.3369 14.6198 20.1044 0 0 0 3.74552 6 38 88 130
5452 1.58435 1.94335 6.43546 209 164 141 0.370497 460 20 461 43 505 18 506 20
2249 -0.071914 1.77492 6.57977 126 70 48 1.26441 309 424 392 393 390 385
3855 1.96095 1.4809 6.6733 152 114 93 1.08451 448 376 478 254 503 92
652 -0.746258 3.12504 6.67917 176 128 99 1.50469 406 313 375 347 359 409 355 326 350 342 327 343 400 328 403 356 405 328 404 313 294 338 306 313
8669 3.2101 3.50758 6.89028 106 61 38 1.55187 159 344 185 353 186 318 152 274 151 287 144 238 151 280 152 266 145 256 145 262 148 252 141 277 146 213 149 232 139 243 139 253 138 250 137 270 132 289 133 259 133 270 135 264 140 238 129 216 124 251 131 236 130 226 126 218 126 226 121 256 120 248 123 254 123 264 119 245 116 228 118 198 115 228 109 245 109 257 111 217 107 235 108 230 106 239 105 252 100 251 103 212 97 228 92 306 87 275 89 265 90 250 88 241 95 225 85 238 86 226 94 234 93 225
2248 1.96515 1.1641 5.54036 223 213 203 2.20377 309 418 310 396 333 394 308 390 332 388
3854 0.362571 2.88034 7.0723 108 60 35 1.68497 466 175 470 200 471 194 472 193 473 151 474 238 475 205 476 208 483 176 468 168 478 224 477 185 482 195 485 222 487 73 481 212 479 191 481 65 489 125 484 210 486 144 488 131 490 36 492 114 493 53 494 78
651 0.056147 2.12866 6.91945 89 37 16 1.73779 407 317 409 322 372 334 373 289 343 271 344 253 345 287 393 314 394 337 363 291 363 360 359 403 356 312 357 296 354 330 355 323 339 242 338 253 334 252 334 300 337 287 350 281 350 308 340 207 340 270 340 293 341 226 341 287 341 311 377 297 332 157 333 158 333 205 326 174 326 279 325 221 328 131 330 172 331 181 348 208 348 262 351 281 342 260 342 290 349 212 349 281 320 197 399 318 314 315 319 52 314 58 315 55 315 284 310 229 321 240 312 56 316 260 353 273 425 427 427 372 429 364 423 336 437 341 408 311 317 56 317 198 307 245 346 243 346 265
3853 -1.18381 -1.36464 10.1626 103 72 95 1.20351 449 158 450 187 478 190 445 92 448 107 442 103 487 104 527 229 531 222
7071 4.11573 3.6654 7.21923 141 103 82 1.23805 240 113 241 122 242 178 243 149 245 143 246 70 248 142 234 136 244 172 226 244
13503 -0.658395 1.47825 8.6267 120 82 84 1.12137 547 155 225 194 202 181
650 -1.43779 2.72973 6.87874 133 94 80 0.709151 345 317 374 313 376 362 378 333 372 311 375 323 373 294 371 294 385 322 382 306 383 314 384 293 387 309 386 288 389 324 388 301 367 325 393 293 394 319 381 334 365 350 364 327 362 325 363 340 359 379 356 337 357 318 354 357 366 324 355 306 339 335 360 294 361 289 337 337 350 311 340 298 341 314 377 318 368 291 370 287 348 286 351 311 342 292 349 255 392 298 399 337 398 330 395 273 400 324 401 316 403 351 390 280 397 280 379 284 353 277 396 283 346 268 352 312
13502 -9.41804 7.80144 9.46232 42 41 44 1.17746 291 180 302 185 313 165 336 206 402 204 413 177 424 184 435 169 447 167 469 156 513 178 524 131 225 185 324 187 391 189 541 196 543 225 547 150 541 117 544 197 546 150 280 163 258 167 213 157 180 170 202 170 169 170 191 165 335 198 446 168 224 176
649 2.97971 1.34983 7.59695 223 214 206 1.7266 374 309 378 311 407 332 372 304 373 285 385 339 387 323 386 303 389 346 388 322 394 334 359 397 356 330 357 291 355 297 360 287 361 284 392 293 395 270 400 305 403 347 390 301 405 307 396 280 427 352 426 348 421 329 437 323 408 310
2245 1.38691 2.80457 6.8579 142 89 66 1.67348 409 280 410 283 411 310 308 236 416 302 408 288 416 325 484 340 487 383 292 346 307 250 305 274 306 239 300 256 304 240 290 261 303 250 299 236 298 244 301 233
7068 -0.178511 1.77813 6.56291 140 82 56 1.18577 237 112 238 49 243 54 245 53 234 63 226 79 235 97 208 51
647 0.677971 4.30074 7.20927 143 95 73 1.48364 372 252 371 237 394 285 359 315 357 233 354 267 332 220 349 202 399 247 398 236 400 237 406 227 401 235 403 254 390 206 397 199 405 245 404 254 427 308 428 287 456 287 476 311 475 300 474 339 473 308 466 260 482 294 477 289 479 281 481 299 457 257
2243 0.449838 2.25558 7.48782 67 20 0 1.69992 385 237 389 232 308 203 311 230 390 190 416 270 442 273 440 250 450 259 441 239 448 270 444 235 443 222 449 228 452 243 454 211 472 243 473 249 476 249 475 246 474 273 470 259 471 232 455 208 468 209 483 240 478 260 482 193 482 230 487 218 485 218 477 227 479 222 481 247 486 188 484 207 489 221 488 182 453 204 490 147 492 211 307 216 305 233 293 230 304 200 303 215 298 204 301 204 285 236 283 251 284 216 281 176 279 164 286 193 493 145 282 229 501 213 505 186 507 67 506 143 504 145 520 51 519 109 494 132 533 69 532 54 536 46 274 170 270 170 268 182 271 189 255 207 251 169 245 184 244 164 232 177 230 224 223 170 210 199 219 117 209 147 214 139 212 137 221 124 211 206 208 138 196 175 194 191 201 150 197 174 189 206 185 127
3849 -0.176153 2.88862 5.45852 101 48 31 3.04322 377 177 483 167 378 193 482 135 481 142 484 145
13499 2.90517 1.34869 7.23068 121 67 55 1.05744 313 134 225 156 302 143 324 120 236 133 213 76 180 134 136 102 114 104 202 93 147 88 80 82 14 26 58 94 91 85 102 98 47 75 36 83 69 91 125 96 25 16 3 27 1 230 564 14 335 29 113 174 575 20 446 14 2 165 224 95 553 14 542 12
646 1.66246 2.73875 6.66909 145 93 74 1.51338 343 188 345 239 372 245 385 241 382 228 387 220 386 239 389 237 367 248 365 252 364 230 362 224 363 261 356 232 366 221 339 198 338 179 340 170 341 183 368 239 370 221 332 163 326 178 327 190 325 187 328 176 328 228 323 168 322 196 330 225 351 245 342 171 329 209 320 161 399 267 398 227 395 224 400 259 314 205 319 158 315 200 310 201 321 166 312 189 316 187 309 235 311 190 390 222 397 218 404 238 427 297 429 250 428 275 415 254 430 216 433 310 436 289 437 230 439 305 440 300 431 256 450 313 448 315 445 301 444 278 434 272 449 276 451 275 452 293 454 257 408 285 465 310 421 291 461 268 464 251 456 277 463 267 472 291 473 297 476 330 475 321 474 328 470 306 471 284 455 258 462 249 466 247 468 246 487 352 485 332 484 295 489 294 457 274 459 247 453 265 490 269 460 237 292 84 310 162 306 167 352 215 300 181 297 166 303 169 299 149 298 172 301 163 284 176 493 217 496 239 501 286 500 306 499 233 497 220 511 340 510 285 509 312 516 340 304 161 512 352 515 313 517 317 506 258 504 247 520 327 522 333 508 256 527 318 521 227 495 206 523 293 526 262 529 311 528 292 530 322 498 199 537 280 540 281 270 179 268 149 271 153 272 148 267 142 303 219 273 145 266 144 261 193 305 195 265 135 252 55 251 126 262 149 249 117 246 130 245 140 239 149 243 145 241 119 240 111 238 134 244 127 231 139 230 78 226 90 223 125 227 136 228 133 220 67 209 68 214 71 216 63 211 72 208 63 215 123 205 66 206 63 199 59 200 58 204 124 203 124 185 62 184 47 154 50 160 50 145 49 148 51 146 36 129 33
2241 -1.66855 2.20697 7.94323 205 197 184 0.972081 309 187 312 53 319 193 320 193 308 159 311 65 318 224 317 167 317 196
8660 -0.340541 3.66933 6.61375 149 113 95 1.43565 165 128 186 131 187 143 188 125 171 59 190 79 164 124 153 57 154 73 152 65 140 57 137 58
2239 0.321136 4.82191 7.70117 127 106 95 0.661127 315 92 316 101 320 86 327 162 331 202 308 132 311 99
7063 0.0759042 0.894621 6.78173 132 80 50 1.43823 355 112 327 101 322 4 320 89 399 103 398 106 400 94 319 4 396 91 425 2 461 78 472 92 473 97 476 96 475 90 474 118 470 92 471 88 462 77 489 82 488 92 490 58 246 154 245 170 243 173 359 321 465 175 467 158 360 199 361 195 466 145 496 113 497 92 505 109 244 148 223 95 222 110 209 120 221 98 211 183 208 111 205 104 206 105 204 147 203 160 185 25 181 14 184 94 175 72 172 17 174 93 166 83 165 94 162 155 141 95 155 28 156 22 157 23 145 89 134 86
13495 4.19843 1.1565 7.90275 51 26 43 0.713857 291 135 302 135 313 129 324 114 347 128 358 141 369 134 225 146 380 154 391 83 447 85 413 81 424 2 435 68 458 64 469 1 535 56 541 74 543 100 269 141 236 130 258 132
642 1.02918 1.58494 6.54082 157 112 91 1.17994 406 13 409 107 410 14 372 180 385 122 387 16 386 16 388 18 359 241 356 182 357 165 354 136 355 178 339 186 360 178 361 170 338 167 334 150 337 185 340 155 332 151 333 144 399 17 398 17 400 20 401 12 403 15 405 18 404 20 412 14 414 11 416 12 421 95 415 73 408 108 487 17 482 17 483 26
3843 0.805148 0.0834038 7.34447 98 68 79 1.88595 468 272 466 270 467 298 487 335 485 317 486 288 484 310
7061 0.118489 1.7564 7.15448 152 97 80 1.41029 254 196 283 131 238 168 375 144 376 162 425 157 366 59 373 61 426 137 445 197 234 183 234 224 192 57
13493 -0.661878 4.2733 6.69821 101 69 53 1.65249 524 102 225 142 535 142 335 90
640 -0.0601573 3.81603 6.40795 164 116 89 1.18865 345 105 411 90 372 159 371 79 385 168 382 157 383 146 384 86 387 150 386 142 367 167 381 174 363 111 366 152 370 89 349 66 316 93 412 79 414 75 416 83 418 94 417 143 415 65 301 81
8657 2.6032 4.02739 6.90914 113 73 53 1.30031 163 63 165 72 166 60 164 64 167 71 155 69 141 63 171 117 170 138 146 47 142 50 139 61 138 58 140 53 124 128 123 62
2236 4.65699 4.29516 8.73663 80 61 35 1.176 308 74 379 92 381 105 383 81 384 91 382 161 300 90 296 98 294 97 292 106 303 74 299 79
3842 0.379364 1.14054 5.77608 99 68 74 2.01366 466 271 476 316 478 328 467 299 475 307 477 293
7060 0.503767 3.64201 7.33955 36 3 0 1.48117 239 311 253 264 241 250 240 259 242 252 238 255 237 248 246 174 249 164 250 182 239 248 248 143 251 177 252 199 254 210 257 259 256 271 251 246 252 301 255 246 260 203 260 159 243 265 240 198 234 240 244 260 232 216 230 279 231 242 233 245 226 296 223 247 229 239 235 198 227 228 222 240 228 218 220 236 210 244 218 224 219 206 209 244 214 267 212 230 217 249 216 233 221 218 211 252 207 273 208 236 215 244 205 226 206 251 199 239 200 240 198 287 196 253 204 239 203 253 194 74 194 284 201 218 195 242 197 261 189 154 190 239 185 201 185 268 187 251 186 234 192 237 183 237 184 220 182 213 188 219 179 218 181 222 193 197 176 257 178 226 172 48 170 134 230 231 177 229 167 187 168 130 171 155 171 202 166 149 165 166 162 171 160 214 159 253 164 159 157 197 156 193 155 195 154 229 152 107 153 146 151 119 150 110 144 177 146 139 149 151 120 103 115 137 121 124
639 0.282812 3.72443 7.07088 93 48 27 1.27736 343 199 345 198 374 155 376 109 378 91 372 152 344 170 375 97 373 143 371 137 382 82 383 73 384 83 389 82 367 212 393 69 394 89 381 170 365 162 364 154 362 150 363 178 359 209 356 153 357 184 354 202 366 147 355 158 339 207 360 155 361 150 338 237 339 265 334 173 334 225 337 210 337 265 350 192 340 223 341 196 377 78 368 143 370 140 332 168 333 168 331 195 351 176 342 176 392 77 390 56 379 142 353 169 352 179
2235 0.428021 2.86654 7.84792 103 55 30 1.00627 290 73 279 66 286 76 270 82 268 61 271 70 272 76 266 56 265 74
3841 0.0216547 3.6242 6.63468 97 61 46 0.803442 483 300 386 169 387 187 412 194 414 175 415 185 478 264 505 190
13491 1.26376 1.19051 6.62058 184 133 105 0.332657 369 101 225 117 269 116 247 119 280 42 236 110 258 105 213 85 202 104
638 -0.471639 3.01561 6.76959 144 98 70 1.32876 343 82 374 151 376 103 372 143 344 71 386 130 387 142 342 71 405 85 292 87
11857 -0.720639 0.835152 6.69935 204 162 140 1.87807 7 282 18 276 19 297 20 306 22 295 23 316 24 325 26 385 6 291 9 285
5436 -6.83603 -1.15952 10.5213 23 25 22 1.27067 472 265 497 206 501 269 507 217 506 243
2233 0.216029 2.16528 7.35707 107 53 35 0.593112 329 56 308 56 307 62 305 63 306 59 286 115
13489 -0.491385 0.578401 7.21137 133 96 93 1.0456 291 24 302 27 313 23 324 17 225 106 269 106 280 19 236 101 258 23 213 122 180 136 202 135 169 138 158 140 191 89 58 130 69 136 14 141 25 147 3 143 564 136 575 129
636 -1.3113 2.35983 7.27735 130 87 72 0.968655 344 55 345 81 372 135 365 150 364 142 362 63 363 165 354 95 360 67 361 62 350 65 340 126 325 79 348 62 351 71 349 52 353 75 352 64
5435 -1.25005 3.29486 6.80779 167 131 113 0.440003 509 240 511 255 512 244 514 265 515 207 516 232 507 204 504 187 525 258 523 256 526 233 529 254
8653 -0.718079 0.629912 7.34374 149 95 86 2.63152 203 199 159 121
2232 1.52913 1.53022 6.49567 198 152 125 0.392206 319 25 321 25 323 20 308 31 307 39 305 39 306 38 300 34 304 37 303 35 287 42 285 39 283 40 284 38 281 34 278 42 279 40 282 37 234 54
3838 -1.93978 1.87312 9.16303 218 220 217 1.11026 467 441 468 404 470 454 471 438 472 459 473 452 474 482 475 439 476 443 483 504 464 414 465 447 466 409 478 474 482 436 487 489 485 458 477 429 479 424 481 438 486 435 484 437 489 428 488 433 490 401 492 418
13488 2.88992 1.37814 7.7494 85 55 56 1.07054 291 19 302 98 313 18 324 77 347 87 358 85 225 100 336 21 369 15 247 11 236 97 213 74 180 14 136 96 202 88 169 85 114 100 147 83 158 93 58 8 14 10 91 79 102 94 47 7 36 8 69 14 125 90 25 7 3 16 1 25 564 86 335 17 575 14 446 87 224 10 553 12
635 0.310366 2.20203 7.44585 134 87 65 0.759955 343 180 372 134 366 135 350 139 332 158 325 184 323 164 330 173 331 182 351 126 342 168 349 108 314 201 319 154 315 195 316 182 311 184 421 193 422 195 423 188 425 245 426 203 427 207 429 201 428 192 430 173 433 140 436 138 439 143 431 173 450 155 448 67 445 151 444 124 443 124 434 131 432 161 449 132 451 66 452 142 454 117 453 109 317 168 292 62 346 147 281 58 245 62 239 64 238 52 208 52 204 54 194 66 185 58
5434 0.541747 0.258408 8.50941 73 23 6 1.82309 505 115 515 88 507 146
8652 -0.716776 1.34874 6.55926 95 42 30 2.50693 160 300 161 261 162 272 163 266 165 273 167 285 168 282 159 335 170 288 173 263 172 287 174 253
2231 1.40091 1.48245 6.49419 181 135 105 0.946933 337 35 338 39 339 40 340 36 308 26 305 37 306 37 283 123 285 36 290 39 289 47 284 35 281 32 278 41 286 36 282 128 277 46 274 49 270 54 268 41 271 50 272 49 267 39 273 60 266 36 261 36 265 45 264 33 256 38 259 34 260 31 257 30 255 33 252 27 251 31 263 41 262 34 253 31 254 30 250 35 249 36 246 39 245 39 239 52 248 41 238 41 244 31 210 54 211 49
7055 3.65006 1.19759 7.81456 129 113 100 0.715612 238 103 239 115 240 85 241 86 243 108 248 109 249 91 237 82 246 153 232 17 234 10 230 15 231 13 233 9 235 72 214 11 212 11 199 10 198 15 196 12 194 11 201 7 197 12 189 122 187 112 192 5 188 88 193 2
13487 2.89096 1.38141 7.75337 85 55 56 1.04814 291 20 302 97 313 17 324 76 347 86 358 84 225 99 336 20 369 14 247 12 236 96 258 93 213 73 180 15 136 97 202 89 169 84 114 99 158 92 14 9 58 9 91 78 102 93 47 8 36 7 69 15 125 89 25 6 3 15 1 26 564 85 335 16 113 11 575 13 446 86 2 14 224 9 553 11 542 75
634 1.66828 1.66208 6.51267 156 111 88 0.506378 343 55 344 44 372 127 373 55 371 118 367 147 365 144 364 134 362 129 363 154 359 67 356 66 357 64 366 130 355 67 339 144 360 53 338 56 334 114 337 55 340 120 341 48 368 131 370 128 332 104 333 99 326 131 327 137 325 138 328 124 323 118 322 136 330 130 331 122 342 44 329 120 320 35 314 137 309 136 319 101 315 134 310 109 321 109 312 45 316 41 308 108 311 132 318 131 317 112 292 144 307 126 305 138 306 112 293 133 294 140 300 127 304 111 296 51 295 120 297 112 289 130 290 126 303 123 299 114 298 112 288 128 287 126 301 117 285 143 283 129 284 126 281 128 278 131 279 115 286 111 282 134 277 112 276 110 274 124 270 134 268 102 271 110 275 116 272 59 273 66 266 98 261 132 265 125 264 105 256 48 259 38 260 105 257 35 255 42 252 126 251 120 263 102 262 101 253 41 254 114 250 117 249 109 246 123 245 135 239 55 248 129 243 133 241 38 240 32 242 116 238 124 237 105 234 125 244 123 232 120 230 146 231 124 233 108 226 68 223 111 229 127 235 89 227 52 222 128 228 44 220 121 210 58 218 123 219 112 209 142 214 55 212 56 217 117 216 114 221 117 211 53 215 116
2230 1.33431 1.37219 6.5357 171 125 99 0.470073 316 12 319 14 321 13 322 14 308 23 311 15 318 20 317 19 307 26 305 21 306 22 304 23 303 21 287 21 285 25 283 27 284 23 281 19 278 24 279 22 286 21 282 20 277 24 276 22 274 42 270 38 268 31 271 40 275 43 272 32 267 27 273 41 266 28 261 22 265 29 264 21 256 21 259 19 260 18 257 19 255 103 252 117 251 117 263 25 262 21 253 102 254 106 250 114 249 32 246 35 245 34 248 27 243 32 241 26 240 98 242 34 237 99 234 119 232 114 230 141 231 118 233 31 226 54 223 34 235 84 227 40 222 34 228 32 220 27 210 40 218 39 219 29 209 40 214 41 212 40 217 32 216 29 221 28 211 37 207 35 208 36 215 35 205 43 206 36 204 38 203 40 201 35 192 44
3836 0.186806 0.201217 7.21791 97 69 95 1.39824 471 414 472 434 473 418 474 452 475 413 476 413 483 475 478 444 482 416 487 450 485 424 477 395 479 399 481 419 486 399 484 408 489 389 488 394 490 368 492 387 493 316 496 316 495 293 494 298
13486 4.25407 1.22845 8.07114 46 34 50 1.10836 413 80 225 94 347 125 358 138 336 129 269 99 280 84 258 85
633 2.82591 1.42582 7.6085 215 204 197 1.09403 343 172 344 152 345 177 374 125 376 48 378 39 372 117 375 44 373 117 371 110 382 37 383 35 384 44 386 41 381 41 365 197 362 177 359 244 356 220 357 169 354 186 354 230 355 180 339 188 361 173 338 168 334 152 337 187 350 221 340 157 341 172 377 33 332 147 333 147 326 122 327 130 328 116 323 109 322 128 330 122 331 116 348 165 342 160 329 110 349 182 320 23 319 28 315 26 321 28 316 26 318 35 379 119 317 34 346 143 352 201
2228 1.89186 2.62219 6.57489 145 90 67 1.5822 398 141 400 74 345 236 411 237 410 211 409 256 407 273 344 205 374 241 372 240 375 252 373 216 383 222 387 218 389 195 388 174 367 246 393 207 394 269 359 293 366 219 339 197 338 176 334 162 337 197 368 210 370 173 330 223 342 210 399 199 395 195 403 147 397 191 405 231 412 219 414 171 425 301 427 254 426 251 416 205 326 221 421 261 420 259 418 196 428 194 415 178 417 185 433 246 437 228 442 277 450 265 445 261 444 240 443 226 432 200 449 233 451 233 452 244 419 170 419 206 454 256 465 284 461 271 464 203 463 224 472 245 467 279 473 250 476 252 475 248 474 275 470 305 471 233 462 247 466 245 468 244 483 292 482 233 487 318 477 229 479 224 481 250 486 269 484 255 489 267 485 258 488 272 457 196 459 166 453 205 490 189 460 160 296 209 297 117 289 147 298 122 288 140 287 171 284 174 496 209 497 193 512 287 511 250 511 339 510 217 516 278 519 241 498 197
13484 -1.38342 2.24752 7.04327 236 230 207 1.39983 6 42 225 65
631 0.311317 3.71183 7.19032 133 88 67 0.32659 343 90 374 87 376 108 378 90 372 76 344 80 375 95 373 88 371 76 382 81 383 72 384 82 387 84 367 96 393 68 381 98 362 89 356 94 357 93 354 110 366 79 355 94 339 95 360 90 361 76 338 95 334 81 337 91 350 84 377 77 368 84 370 80 332 73 348 77 351 86 342 80 349 62 392 76 379 88 353 86 346 73 352 82
2227 -1.21924 3.45859 6.71514 146 97 88 1.4338 345 296 411 341 410 309 409 306 406 294 407 320 344 261 343 279 376 342 374 295 378 319 374 317 376 365 372 286 372 316 375 304 373 266 371 302 385 328 382 310 383 300 384 297 387 315 386 292 389 332 388 308 367 334 393 298 394 325 381 314 365 335 364 311 362 306 363 350 359 384 356 319 357 302 354 339 366 310 355 311 339 316 361 296 338 285 334 278 337 316 340 278 341 297 377 276 377 304 368 279 370 293 332 263 333 268 326 286 327 300 325 288 328 286 323 283 322 316 330 291 331 295 348 293 351 290 342 270 329 265 349 260 392 305 399 321 398 311 395 276 400 311 401 300 403 335 314 301 309 272 319 217 315 271 310 266 321 249 312 253 316 266 337 258 323 237 322 270 320 217 308 240 311 287 318 238 390 286 397 272 379 287 405 310 353 284 404 296 412 328 414 293 396 287 425 432 427 359 426 356 429 369 416 327 422 326 423 320 421 333 420 331 418 332 428 334 417 308 430 345 433 377 438 404 436 358 437 345 439 377 442 393 440 371 431 329 450 389 441 362 448 405 445 391 444 357 443 351 434 340 432 305 449 355 451 350 452 365 419 311 454 323 408 316 465 367 461 341 464 327 456 347 463 344 472 373 467 359 473 368 476 368 475 365 474 395 470 380 471 359 455 320 462 321 466 331 468 322 483 417 478 389 482 353 487 407 485 371 477 344 479 345 481 358 486 348 484 359 489 342 488 347 457 318 459 286 453 310 490 315 492 339 460 271 317 214 292 314 307 261 305 281 306 247 346 270 352 264 293 244 294 269 300 233 304 248 296 300 295 254 297 238 289 249 290 236 303 257 299 240 298 250 288 227 287 231 301 217 285 245 283 215 285 208 287 187 284 184 281 234 278 227 279 217 286 205 493 269 496 287 501 331 500 350 499 285 497 277 512 379 514 405 511 393 510 340 509 353 516 364 505 316 503 317 515 336 518 392 517 345 507 334 506 305 504 291 508 298 495 252 494 257 498 249 277 244 276 238 275 212
7050 -0.467974 1.51242 6.17158 172 106 92 1.36846 238 346 246 329 248 337 237 334 234 369 244 335 232 343 230 411 231 368 233 328 226 445 223 354 229 375 235 317 227 367 222 364 228 351 220 363 218 351 219 331 217 343 216 365 221 334 215 339 207 366 209 365 210 372 211 375 212 359 214 361
13482 0.537782 1.79811 6.83452 202 144 122 0.543288 291 107 369 141 225 54 269 60 247 53 280 108 236 48 258 52 213 42 180 55 202 45 169 99 147 43 80 44 191 50 102 46
629 -0.000537421 2.54637 6.61736 128 75 50 0.758057 343 76 372 63 344 61 373 79 385 72 393 58 394 74 365 82 364 69 362 69 363 80 359 93 356 80 357 78 366 70 355 77 360 72 361 63 338 80 334 65 337 72 350 71 340 66 341 69 368 71 370 70 332 61 327 71 328 62 323 62 330 65 348 66 342 67 329 62 349 54 320 59 392 65 399 85 398 78 395 61 400 72 401 64 310 54 312 61 311 72 397 62 405 76 353 79 396 68 425 73 427 68 426 161 429 59 416 64 422 69 421 62 420 68 418 65 417 62 430 65 433 61 436 65 431 54 441 58 444 57 443 53 434 61 432 47 451 67 452 63 474 73 483 74 482 54 487 64 485 68 484 65 488 58 459 26 453 107 292 165 307 71 306 66 346 63 352 69 293 81 294 80 295 67 277 72 250 55 245 71 239 72
8646 -0.305897 -0.845084 0.186529 80 49 26 0.33167 161 161 159 247
2225 -1.24345 3.80646 8.22078 159 106 90 1.93225 319 379 389 422 392 391 393 393 388 400 318 390 390 383
3831 -7.29646 1.1683 11.7359 100 73 39 1.80962 464 197 483 287 463 179 482 192 470 193 461 174 457 90
13481 -1.08796 6.21746 10.6715 0 0 0 0.286386 302 59 547 29
