# 3D point list with one line of data per point:
#   POINT3D_ID, X, Y, Z, R, G, B, ERROR, TRACK[] as (IMAGE_ID, POINT2D_IDX)
# Number of points: 280, mean track length: 23.774
23217 2.27983 -6.9281 5.61318 183 132 108 1.27264 330 519 343 554 345 543
10364 2.00564 -7.08556 4.18152 224 213 208 1.30173 61 732 65 802 70 807 66 746 62 759 76 790 84 353
29660 1.59883 -5.62152 5.66185 178 108 77 1.32183 437 116 440 118 473 191 475 172
3943 -3.19176 -3.18507 14.2339 25 22 17 1.86964 10 737 34 591 19 624 33 610 41 608 48 764 18 407 26 789 39 607 541 624 540 487 538 562 536 683 519 545 523 639 424 760 504 424 520 434 531 435
23193 0.500082 -5.94871 5.6463 139 75 47 1.83936 343 229 345 230 346 273 350 150 352 229 348 304 349 130 354 179 356 174 355 178 360 314 357 190
10340 -5.94636 -5.04427 12.7803 8 8 5 1.03318 8 337 66 339 509 80 498 73
3919 -4.35311 -3.37553 14.2727 53 55 52 0.720701 26 779 48 621 61 589
23192 -4.97729 -8.02895 9.12728 2 0 9 2.13014 329 220 345 229 330 134 339 154 344 141
10339 -5.8618 -6.44039 11.155 60 65 64 1.46768 52 372 62 119 67 380 68 342 66 304
3918 -4.31218 -3.43707 13.8876 53 54 54 1.08951 26 778 48 620 56 439 49 199
3906 -5.61456 -7.45342 9.97823 73 77 83 1.58655 35 421 37 480 48 535 56 336 59 373 60 293 61 326 62 453 64 315 67 361 65 339 66 439
23178 1.08468 -7.50253 5.47578 92 56 48 1.38213 333 40 337 61 345 60 344 45
10325 -3.73836 -5.11084 12.4151 30 29 21 1.87534 358 531 526 688 302 612 147 584 180 525 225 656 291 643 169 566 347 483 43 842 63 790 280 520 24 633 533 583 91 522 136 451 25 416 3 463
10322 -5.30708 -5.02815 12.6365 7 8 10 1.51694 10 544 17 547 44 457 513 218 28 362 539 261 30 362 519 110 518 224 69 106 97 434 96 460 135 433 112 269 85 201
29618 -5.36832 -10.7075 7.86388 0 0 0 2.77827 387 189 473 296
3901 7.48463 -3.48538 7.97333 80 44 15 1.343 435 335 48 458 529 170 525 176 524 162 458 336 507 73 512 85 504 194 380 141 30 198 247 325 191 132 213 137 508 46 510 71 36 153 80 267 58 407 47 374
3900 -3.62972 -3.49769 13.7462 23 21 19 1.54917 49 522 48 454 51 513 52 465 54 459 53 548 56 442 55 498 540 607 18 683 539 579 533 602 526 620 57 408 33 177 59 259 60 389 63 806 62 529 61 430 37 201 39 223 34 199 35 170 523 505 49 645 521 487 522 589 64 655 67 626 65 723 496 724 495 718 497 726 493 667 435 639 491 562 435 498 447 511 458 494 469 553 424 505 70 568 68 532 66 517 72 585 73 513 1 175 81 356 82 202 83 203
16752 1.45844 -4.87167 5.9103 138 90 74 1.01363 94 533 95 545 96 679 97 631 98 606 99 606 101 603 103 638 89 353 90 364 86 289
3899 -5.3128 -3.82235 14.0514 47 48 49 0.591632 16 142 48 422 74 455 57 388
29612 3.35454 -6.11735 4.07386 237 227 228 1.20884 459 162 460 171 461 222 463 215 464 200 465 249 468 165 470 201 471 164 466 104 467 196 483 33 475 11 476 21 487 20 486 22
3895 -5.95928 -4.688 13.2429 53 55 58 0.633859 27 346 48 395 62 348 56 173 57 152 60 349 54 182 113 106
10313 0.835706 -6.05172 6.07321 0 0 0 0.803705 529 962 530 895 532 970 533 877 534 928 536 928 538 943 535 869 528 871 537 867
3890 3.39407 -5.05213 5.8962 170 122 104 2.02057 17 94 48 376 52 136 70 161
10303 1.52959 -4.95972 6.20241 0 0 0 1.86142 41 535 517 517 39 546
3882 -4.92284 -7.57791 9.32478 56 61 66 2.8988 26 413 48 322
23148 3.11987 -6.4261 4.05038 0 0 0 2.87581 317 495 334 540
10295 -3.80286 -5.7785 14.272 0 0 0 3.39459 19 715 515 375
16727 -5.54357 -9.33666 7.63768 32 32 40 0.871969 87 78 143 11 89 86
3874 -4.60648 -3.19001 14.7668 49 50 55 1.57977 17 179 48 239 539 146 536 183 534 193 324 134 36 157
10294 7.35734 -3.84466 7.95739 62 28 6 0.927256 70 564 508 139 505 214 506 170 78 470 87 183 89 191
3873 7.76734 -3.53796 7.97122 78 43 16 0.825254 23 186 24 198 26 300 28 210 48 233 27 193 46 193 59 284 60 232 61 246 497 185
10293 7.29632 -5.03893 6.15308 54 26 8 1.70042 458 73 469 72 512 289 517 187 513 216 1 103 113 74 2 74 224 69
3872 -4.04729 -3.52159 13.8897 56 58 60 0.669507 7 163 8 179 10 186 12 187 48 221 6 154 11 192
10292 0.522055 -3.36452 8.95176 188 126 102 1.18077 503 301 504 202 506 396 507 361 508 367 510 285 511 371 512 203 514 209 516 84 517 222 518 112 519 164 513 147 505 367 525 187 505 473
16724 -3.72493 -3.77522 13.4908 9 7 8 1.26699 83 201 85 145 533 330 82 99 78 343 89 81 90 72
3871 -5.93364 -3.58214 14.5339 96 84 202 0.455782 23 159 27 169 48 206 76 248 81 177
10291 0.271247 -5.36288 6.4298 0 0 0 0.382691 502 38 528 59
10288 5.22335 -4.64389 3.36682 0 0 0 1.54547 496 100 510 139
16720 0.440516 -7.2845 4.02386 160 100 86 1.55515 116 446 117 460 118 475 120 424 121 444 87 359 119 527 122 370 126 600 127 583
3867 5.92371 -5.50118 4.94135 47 20 2 1.19276 39 349 48 98 50 110 52 113 51 320 46 86 53 93 55 101 30 517
3861 2.24471 -3.89584 11.4421 102 69 58 1.4728 37 1051 44 974 52 1147 51 994 63 1061 64 973 65 1041 72 1017 71 917 73 922
10279 -4.85418 -9.10459 8.27107 7 6 2 1.77931 9 706 32 744 20 764 28 798 41 761 16 686 45 754 44 654 51 544 18 715 21 674 68 548 46 619 535 528 60 636 105 563 84 277 89 257 88 186
16711 0.129958 -3.88034 8.69979 182 110 92 1.19875 73 826 75 819 76 892 84 452 85 455 92 683 95 611 99 671 95 660 87 419 100 682 86 360
3858 3.65476 -4.48651 5.22532 176 155 146 2.34969 34 363 45 546 44 452 39 553 38 288 35 102
23120 0.991768 -5.2973 6.03797 140 82 58 0.958367 285 76 289 95 329 91 287 88 288 84 290 92 330 74 286 72 284 72 418 36 420 32
10267 3.57204 -3.66685 9.58315 0 0 0 2.11155 19 1017 62 647
3846 -5.80537 -6.84967 10.7383 9 9 17 1.82627 41 959 42 863 43 1025 45 969 44 850 48 988 40 853 46 838 52 1022 54 970 53 876 56 977 55 853 49 866 57 974 59 1052 63 989 62 894 61 984 60 893 64 899 67 960 70 878 72 899
16693 -4.58032 -8.40023 8.91344 28 27 20 0.56154 34 744 87 250
3840 1.05263 -3.50659 11.7104 105 74 62 1.62054 26 1050 27 774 44 713 61 838 63 854 62 753 64 765 66 741
29534 1.25093 -4.13456 7.97597 0 0 0 2.39892 350 480 455 379 349 418 481 404
3817 -6.15887 -5.10316 13.1903 72 74 71 1.47856 17 711 44 455 63 567
16649 -1.09741 -0.717434 0.713828 132 93 250 0.857766 130 390 166 241
3796 7.64538 -3.84361 7.53411 93 58 33 0.921234 21 182 44 157 529 162 526 153 525 163 518 100
3783 6.4198 -3.23904 9.12608 104 59 23 1.35218 21 231 22 179 23 199 8 203 38 186 42 199 413 155 435 347 48 271 31 181 5 169 538 184 536 186 534 397 532 424 535 357 533 361 529 379 530 352 528 154 526 172 527 170 521 185 522 347 519 168 496 200 494 198 447 359 458 355 517 104 514 88 402 173 516 87 391 150 380 160 347 289 369 161 291 160 302 149 324 138 336 168 225 338 269 143 247 152 191 137 236 140 213 147 202 119 180 113 147 136 125 136 169 137 158 148 513 58 91 131 102 123 136 134 80 103 114 131 69 139 58 159 25 124 14 120 520 127 3 130 446 128 509 101 526 361 498 96 537 156
3782 -6.24312 -4.22714 13.9188 49 50 53 0.81455 10 553 20 541 22 456 18 514 23 538 21 582 24 488 26 746 9 517 8 555 7 493 28 584 27 530 29 454 30 557 34 554 33 469 35 461 37 532 38 445 41 559 43 591 42 490 45 561 49 164 18 144 17 365 15 384 13 316 12 388 19 151 16 335 39 398 44 468 48 584 40 483 50 597 52 433 31 445 51 170 46 441 54 580 53 513 56 408 55 330 6 487 541 466 4 473 540 458 5 466 538 530 539 428 536 507 534 507 532 551 535 456 533 460 530 486 528 444 529 517 527 502 526 489 525 498 524 467 435 477 523 484 522 447 519 411 518 366 496 546 495 540 497 558 491 538 500 528 447 484 458 469 469 526 502 404 503 442 424 322 494 370 495 369 499 493 517 315 512 182 38 570 402 476 516 325 504 304 391 414 380 440 514 301 358 419 369 444 291 439 302 279 324 397 225 433 269 259 247 448 280 394 258 248 236 412 213 275 213 514 515 292 510 267 511 260 202 352 147 275 125 391 180 333 169 364 158 351 513 227 91 343 102 367 136 358 80 351 114 347 47 251 36 261 69 345 58 267 25 240 14 241 1 501 335 265 113 359 2 365 224 299 11 546 480 522 537 298 537 466
10200 3.30603 -7.14495 4.96634 130 92 82 1.69315 61 884 62 795 63 897 65 891 67 921 64 817 68 808 66 750 72 825 70 813 71 728 74 882 73 718 76 795 77 649 81 716 78 694 82 478 79 397 84 359 87 329 89 343 90 352 88 271 86 273
16632 -5.01773 -8.45991 8.22367 39 3 163 1.31876 144 663 167 524
29496 0.292443 -5.34256 6.56956 93 56 43 1.85355 441 408 455 400 459 412 460 406 464 432 474 530 441 362 462 435 466 413 438 403 459 355 460 340 454 451 470 515 432 343 451 398 428 368 429 466 430 411 431 405 433 443 434 367 437 402 438 445 444 413 436 427 449 443 438 490 452 438 452 481 440 448 439 378 443 379 448 412 450 424 439 433 448 467 440 392 456 487 461 490 467 511 465 552 467 461 463 462 463 520 453 416 465 601 457 425 454 398 457 358 430 377 434 339 428 311 429 357 453 362 473 463 472 486 468 416 474 479 441 330 455 334 473 408 471 437 475 424 425 408 407 273 476 463 477 424 481 444 483 510 478 456 479 417 479 391 484 435 484 411 482 420 482 397 418 167 415 237 417 176 399 235 400 223
3779 -6.00193 -3.11596 15.2496 51 51 46 1.31439 12 202 26 304 413 316 18 401 17 197 435 145 19 218 21 219 20 201 22 346 8 195 7 180 28 216 35 188 37 401 38 475 41 215 43 249 42 190 44 180 50 237 51 217 54 253 53 228 55 215 5 161 532 201 535 352 529 384 530 356 527 177 57 250 59 643 523 168 65 272 519 159 499 556 500 192 380 150 369 336 66 223
29479 1.65193 -6.28944 5.3491 89 49 37 1.50083 463 225 464 207 465 261 474 236 431 166 443 153 461 234 442 128 432 148 472 193 473 185 476 186
3762 7.26589 -3.33653 8.50268 238 227 210 1.71013 33 832 43 975 28 1004 518 701
10176 -4.01557 -4.16487 13.1099 62 66 68 0.547497 499 195 70 551
3755 -5.61896 -4.02824 13.846 13 12 17 0.731711 29 740 30 851 32 829 45 850 40 738 50 856 52 926 31 723 46 725 54 871 56 870 55 744 57 805 59 892 60 731 61 831 63 844 68 748 74 864 75 712
10167 -3.46335 -4.29564 12.7178 31 30 23 1.43141 30 379 70 417 27 355 121 284 67 593 72 560 81 459
3746 -4.79052 -8.24861 9.76561 2 3 0 1.88267 435 580 508 319 501 657 413 535
10160 0.508983 -5.02849 6.63754 202 157 150 0.996539 60 320 61 353 62 486 63 546 64 347 65 374 70 379 68 352 66 320 72 375 71 346 74 408 73 330 76 359 75 327 77 287 78 286 100 381 101 380 105 409 104 392 107 356 106 323 109 366 117 337 118 353 119 407 128 472 121 342 126 453 130 463 137 377 132 482 127 423 133 422 123 377 129 426 134 458 131 292 122 339 120 331 115 288 124 362 141 369 139 319 135 312 140 310 138 294 143 312 116 257 111 287 110 288 112 256 145 137 142 267 144 134 148 133 151 127 153 268 159 165 155 330 160 134 161 274 162 256 188 205 216 294 218 287 214 202 217 229 219 248 233 172 234 184 237 183 232 170 238 178 261 166
16592 -1.27052 -0.819194 1.63207 0 1 5 0.380901 161 316 167 148
29456 0.160809 -5.82457 6.81792 227 223 213 1.92787 449 465 450 468 472 511 478 474 477 425 482 398 483 511
3739 -0.746554 -2.16278 -1.33457 7 6 21 2.01664 43 714 46 537
16587 1.39174 -6.57919 4.29624 199 138 104 0.630251 154 43 167 36 166 36 168 37 170 39 172 36 171 36 181 24 174 38 173 33 183 25 196 55 199 45 205 39 195 38 204 35 207 44 208 50 209 47 206 41 210 40 211 51 212 50 216 56 218 42 214 45 215 45 221 128 226 32 222 36 223 22 227 35 233 40 234 39 237 39 230 24 239 35 232 35 231 25 235 32 238 30 240 27 241 33 229 21 265 37 263 38 262 38 260 35 271 36 266 34 272 36 268 27 274 35 287 20 293 24 289 41
3734 -5.76003 -3.22293 14.9066 51 51 51 1.29099 7 664 18 547 20 576 45 600 44 495 40 512 52 635 6 645 4 504 5 631 523 514 522 481 519 435 497 583 493 534 380 464 358 300 369 473 291 467 180 351
23007 -1.00239 -9.10286 5.43293 93 64 60 1.75685 327 419 328 365 339 433 340 400 326 301 329 404 331 357 337 469 329 340 332 354 334 407 330 346 343 489 342 438 344 423 352 510 348 463 354 506
10154 -0.0576977 -6.13477 6.18919 149 86 62 1.23825 61 328 63 95 70 345 68 103 72 101 71 96 73 96
16586 1.20152 -7.36928 4.27678 145 102 89 0.552044 140 22 143 22 167 18
29450 2.20859 -4.86776 7.37245 151 86 63 1.20385 451 436 453 373 461 494 472 472 451 378 454 406 471 427
3733 -5.98769 -3.2425 14.9542 42 43 47 0.965534 13 515 15 606 16 532 45 598 51 521 526 521 60 511 63 738 503 467 45 728
3732 -5.99194 -3.24665 14.9391 42 43 47 1.36876 12 608 13 514 15 605 45 597 16 531 54 620 41 434 43 627 51 520 42 388 55 363 56 237 526 520 57 417 60 510 61 584 64 217 63 739 505 223 499 532 503 466 45 727 169 389
10150 -4.79574 -3.94653 13.8081 116 98 235 0.416182 49 180 70 234 76 225 100 183 104 181 117 145 118 171 119 189 121 162 126 249 127 215 123 198 131 204 122 160 115 110 111 102 112 96
22991 0.650866 -10.3792 4.54983 106 67 64 1.38011 323 2 327 11 328 2 329 4 331 10 340 6 325 8 326 0 332 5
10138 -5.44654 -8.36903 9.67164 1 0 58 0.738224 39 48 70 87 68 78
16570 0.857592 -7.09444 5.67366 139 80 54 2.04497 131 699 139 751 164 572 178 494
3717 -6.00246 -3.10565 15.0813 12 12 9 1.45987 28 437 45 455 48 464 50 616 10 427 528 158 64 439 53 227 63 478 67 292 65 466 519 321 435 338 500 387 424 359 516 229 508 49 80 367 11 581
16568 -0.168319 -5.64036 6.02403 160 107 84 0.655628 141 782 143 682 151 572 156 640 157 603 164 560 168 504
29432 2.78194 -4.96795 7.57228 165 114 86 1.00772 357 353 474 283 472 306
3715 0.696991 -3.61084 13.5335 103 72 62 1.64156 28 426 45 444 27 396 54 258
3708 -5.7379 -4.82686 13.0932 50 55 54 0.536687 22 287 23 336 45 376 21 382 533 85 534 106 496 130
29406 2.18958 -11.0012 2.96138 120 78 83 1.12859 452 92 461 3 462 2 463 2 465 122 466 94 467 86 470 94 474 117 472 88 460 79 468 93 471 86 475 73 476 86 478 5 483 83 482 120 484 60 485 93
3689 7.45205 -3.7367 7.77327 75 40 11 1.06447 413 128 45 198 50 220 500 159 539 117 158 140 336 148 68 240 136 126 446 114 84 82
10099 4.61221 -7.42728 3.97177 111 93 119 2.54177 347 452 530 10 313 495 532 14 291 399 324 346 225 385 247 535 169 195 523 17 380 14 522 223 347 190 336 15 91 20 80 10 47 19 47 409 36 323 69 190 58 21 58 337 25 22 14 18 520 174
16531 -4.32055 -4.9336 11.4819 54 54 54 1.21295 76 381 165 304 172 237
29395 2.95904 -5.34566 6.15198 118 74 52 1.01743 441 198 453 176 462 208 457 133 470 234 436 268 437 255 456 299 434 193 442 206 444 203 445 196 448 213 449 190 450 189 452 223 436 206 456 218 454 196 454 257 451 180 468 192 471 177 472 212 473 207 474 263 475 183 489 306 483 137 488 265 490 286 486 234 484 230 485 210 486 167
3678 3.50462 -6.76069 4.32055 95 58 52 0.562997 32 299 45 44 48 58 49 38 50 46 52 52 51 56 46 35 54 58
10092 6.17705 -2.44752 9.92977 106 65 36 1.39603 147 847 280 870 291 919 324 869 336 900 506 734 517 783 158 789 91 777 102 786 136 784 114 772 47 748 69 760 58 799 25 746 14 746 531 724 446 670 224 675 498 613
16524 7.8301 -10.7463 9.5141 198 144 110 1.44083 129 824 163 677 127 805 133 814 128 908 164 647 165 650 130 882
3671 0.753217 -7.78588 4.48731 251 220 217 1.78213 43 6 49 237 45 4 44 3 46 1 55 2 527 222 525 439 57 3 523 421 517 383 99 18 100 197 101 202 103 205 104 194
10086 0.454777 -6.74247 5.88169 188 118 92 1.38246 169 676 25 617 520 587 113 633 3 572 2 627
3665 -0.167938 -7.19615 5.90617 227 221 214 1.09045 43 1161 49 1001 45 1107 44 985 48 1124 40 993 50 1114 52 1156 46 978 54 1101 53 1005 56 1111 55 984 41 1097 42 1003 51 1001 225 977 269 899 247 985 236 925 180 833 202 856 213 910 147 902 125 876 169 867 91 830 158 844 102 838 136 841 80 822 114 827
16513 -4.99674 -7.85944 9.18615 46 46 46 0.288936 137 633 138 542 165 465 166 407
3660 5.4427 -5.45657 4.92922 155 113 91 2.16841 7 962 33 911 31 903 12 1106
10061 7.60753 -2.88044 8.87165 117 76 47 1.18022 12 500 21 496 10 476 13 417 15 489 18 447 20 464 24 245 22 209 9 455 7 420 6 420 4 405 540 211 5 399 539 347 533 518 523 391 514 235 510 91 511 80 391 338 469 200 495 444 458 165 236 156 136 294 1 214 11 477
16493 4.28616 -7.1242 3.65084 235 223 213 0.968693 153 199 161 213 163 209 165 219 154 37 166 274 151 294 152 302 141 436 144 306 145 327 146 256 149 271 150 334 168 184 170 272 172 254 171 242 176 254 173 246 173 300
29357 1.36531 -4.77793 7.43807 123 82 66 0.92652 464 157 466 141 467 156 470 161 474 193 453 63 472 146 468 72 473 138 471 69 476 145 478 142 483 153 481 122 489 83 487 66 488 135 485 148 479 94 484 106 482 107 486 60
3640 1.88614 -7.43616 4.42129 201 182 184 2.14115 29 818 532 635 525 442 521 634 518 590 519 654 42 537 39 636 515 513 513 499
22907 -0.443865 -7.24061 4.33871 169 108 97 1.49865 331 6 333 108 334 1 330 1 304 212 301 209 353 0
10054 7.36049 -4.66173 6.64666 60 29 4 0.68356 17 348 18 129 20 114 21 132 30 127 12 566 19 130 435 74 4 315 413 83 536 104 534 105 535 83 524 301 447 85 517 67 504 42 291 291 269 233 247 278 258 226 236 252 213 94 202 81 180 76 136 91 537 86
16486 0.275179 -5.07288 6.75623 208 198 181 1.04397 124 135 130 172 159 163 165 138 166 109 192 214 194 256 193 217
29350 2.70186 -5.13545 6.12161 131 72 55 1.02805 452 72 460 59 462 124 463 70 474 73 477 45
3633 -5.30603 -7.21024 10.0737 51 56 55 1.43948 17 509 77 500 96 580 132 642 117 405 139 582 150 477 87 206
22902 -6.41748 -9.56653 7.64776 3 5 0 1.93617 310 1 311 92 366 89 331 115
10049 -6.96959 -1.27219 19.9057 25 11 0 1.92638 125 443 169 424 114 496 324 460 413 630 69 482 1 571 113 491 531 374 347 533 402 663 491 746 380 721 447 709 2 489 480 619
16481 2.56728 -5.72084 4.37554 200 151 115 0.54964 155 92 156 97 159 102 160 88 161 87 163 96 165 97 164 94 167 87 166 84 168 85 172 77 176 83 181 82 174 84 178 78 175 61 173 85 179 75 182 89 177 68 185 69 183 72 184 68 187 78 188 82 186 73 190 79 192 75 194 95 193 97 198 103 196 97 197 91 203 107 199 89 200 100 205 96 195 89 204 91 201 69 207 101 208 105 206 87 237 84 250 54 245 75 246 69 252 80 254 59 253 67 249 52
29345 2.60426 -5.50234 4.69234 224 179 144 0.640464 451 111 460 101 461 124 462 110 463 140 474 41 454 126 464 48 475 27 476 38 478 35 477 23 489 37 492 189 488 43
3628 -4.31284 -3.36242 14.1669 57 59 59 0.847566 21 204 41 437 43 480 42 390 63 250 64 221 65 255 57 233 56 244
16475 -5.9354 -6.11394 11.663 95 87 172 0.515317 23 508 24 309 85 194
3622 -5.70672 -6.27504 11.3414 4 8 15 0.532059 23 301 42 303 123 273
29338 -3.71697 -7.39926 9.03801 48 29 13 1.58028 441 364 466 377 467 462 422 320 427 345 438 402 428 310 423 294
3621 -5.48486 -7.11864 10.3201 7 5 49 1.38282 30 60 32 69 37 83 38 255 42 283 46 68 43 79 45 86 53 74 64 328
29330 0.816145 -5.05217 7.01352 43 27 20 1.46011 441 435 453 451 459 457 460 451 462 486 466 486 426 410 428 403 436 475 427 458 437 460 438 518 449 469 439 456 443 431 444 461 445 469 448 492 450 471 452 516 456 532 440 475 442 471 461 563 465 604 451 446 463 550 467 542 464 512 457 468 454 485 470 542 455 448 472 513 468 455 471 468 474 564
3613 -4.06076 -3.93607 13.3762 91 91 152 1.09122 23 150 43 205 42 144 57 200 55 166 68 222 76 229
16419 -5.36941 -8.26179 9.3108 11 3 49 1.90613 143 375 144 327 145 349 146 277 157 337 160 333 163 339 140 389 156 447 160 403 172 347 171 325 174 336 178 326 168 277 173 310 179 313 177 297 185 325 185 368 192 319 203 411 204 361 212 332
29283 1.12838 -4.02976 8.07644 154 143 138 1.52067 431 390 433 389 434 309 436 374 438 367 439 352 440 365 455 343
3566 3.94682 -7.04144 4.0375 100 76 85 0.789621 49 550 43 673 42 543 45 489 44 525 48 653 50 643 51 552 46 500 54 764 53 583
9977 -4.55556 -4.86746 16.4254 34 33 24 2.70623 469 341 147 375
29273 -3.64075 -7.57652 10.39 88 56 15 1.22321 407 280 460 302 415 242 492 499 409 206
3556 1.34711 -4.96375 6.01303 169 119 102 1.06985 35 296 37 321 39 542 41 528 43 564 42 464 45 538 44 445 48 561 40 459 52 563 51 467 46 424 54 552 53 486 56 544 55 443 57 517 61 498 63 544 67 567 65 542 269 74 247 74 258 83 147 86 68 478 66 464 114 84 72 516 71 462 76 515 82 259 83 271 96 526 71 554 97 415 98 391 100 382 99 391 101 381 105 410 103 402 104 393 95 344 94 309 108 334 109 367 117 332 118 350 119 401 128 572 121 337 126 551 132 568 127 500 123 462 134 556 122 422 120 327 115 285 124 441 116 253 116 331 111 285 110 289 112 253 79 148 84 193
22821 -3.52216 -7.45498 10.4123 115 79 30 1.32628 322 328 331 331 337 359 341 339 339 317 333 303 332 280 342 300 344 287 350 320 352 340 348 331 351 273 356 323 357 290 353 266 355 197 363 356 367 380 364 283 400 232 389 272 388 223 405 166 420 235 444 204 461 349 442 261 465 376 460 245 489 311 487 297 488 267 418 175 414 176 409 164 412 169
9968 6.35016 -1.94545 10.2218 98 55 20 1.63396 413 197 424 230 447 227 469 248 391 195 494 275 495 642 91 168 496 488 497 652 499 831 69 171 247 201 480 267
29264 5.02722 -5.58001 5.92156 98 70 57 1.54367 429 170 456 88 467 159 455 71 428 118 430 223 466 144 465 203 468 138 478 147
3547 6.48694 -3.10931 9.24214 135 91 53 1.28044 22 195 27 433 29 362 39 253 43 516 26 342 40 216 532 211 102 129 14 126 11 452
9966 8.19542 -2.76036 8.99076 94 62 32 0.728037 225 192 236 159 247 180 258 155 369 195 147 166 391 176 158 165
3545 5.17219 -3.2256 9.35984 94 50 22 1.03503 13 365 43 495 12 450 15 436
22814 0.97681 -3.6522 7.89575 141 129 117 0.184611 305 188 317 152 341 203
9961 3.9331 -6.93033 4.06193 75 35 36 0.642481 280 37 147 35 347 203 358 32 369 238 413 28 47 39 58 38
3540 -5.71425 -5.14894 12.7028 111 99 237 0.646534 26 482 43 400 56 563 55 306 53 145 54 159 57 531 64 145 65 172 73 352 75 162
22805 -0.964482 -7.57691 4.68089 93 55 52 1.52303 317 153 318 208 337 136 341 111 339 103 338 111 340 95 334 108 305 190 342 127 359 185 356 128 357 3
9952 2.27859 -3.98689 10.9355 89 63 51 1.1694 202 700 510 639 511 610 402 844 505 740 424 890 517 710 447 942 458 913 469 969 503 849 49 813 18 890 17 932 10 998 49 903 15 940 13 897 12 966 19 1014 21 1032 20 913 16 899 23 891 15 1050 22 850 24 898 26 1225 9 859 8 923 7 881 28 961 27 883 29 839 30 949 34 893 33 823 32 927 35 774 37 870 39 921 38 796 41 940 43 1012 42 816 45 908 44 807 48 970 40 833 50 961 52 974 52 1057 31 780 31 867 51 854 46 820 54 954 53 861 56 962 55 800 55 894 6 840 541 808 4 870 540 918 5 809 538 877 539 820 536 915 534 865 534 973 535 855 532 949 533 808 529 892 528 801 530 874 527 832 526 800 525 838 57 894 59 976 524 801 524 906 525 943 60 787 61 907 63 888 62 783 523 872 522 841 521 843 64 833 413 817 435 912 67 909 67 994 65 880 65 954 518 679 519 782 499 1148 491 933 497 952 501 985 496 1001 493 961 494 1004 495 1009 497 1049 500 892 502 758 507 766 512 647 514 628 516 622 516 723 504 613 504 736 506 597 515 657 506 717 508 575 508 683 70 870 68 827 513 592 66 814 72 887 71 759 74 943 73 750 76 861 75 753 77 717 81 743 78 761 79 464 82 544 11 964 537 804 480 934 537 910
29248 0.306641 -3.74566 8.21871 0 0 0 1.56759 431 460 443 436 453 459
3531 -6.18186 -2.83984 15.705 12 8 1 0.527523 15 463 41 232 43 272 42 207
16350 1.90171 -4.49037 6.4054 126 84 65 1.73601 122 249 162 273 124 370 164 288 167 246 166 249 168 234 170 251 171 217
3497 3.77246 -7.14045 4.56652 67 45 59 1.04638 33 405 37 464 41 488 12 674 13 695 15 681 17 769 19 795 10 644 21 811 16 695 23 737 22 644 24 703 26 988 8 492 9 293 7 437 28 875 29 645 34 741 33 540 37 714 38 618 49 554 43 679 42 430 45 638 44 536 48 660 40 551 50 648 52 673 51 557 46 512 54 769 53 681 55 650 6 437 56 773 541 413 4 423 4 566 540 535 5 412 538 613 539 501 536 446 534 456 532 490 535 410 533 410 530 427 413 529 435 773 8 945 528 371 528 533 527 580 526 564 525 564 57 719 59 801 524 410 60 647 61 746 63 758 523 569 521 412 521 539 522 533 519 485 518 424 496 658 495 650 497 656 493 593 491 630 499 844 494 653 502 498 500 617 447 721 458 689 469 747 503 633 424 578 517 394 507 549 512 378 514 371 402 752 505 522 516 378 504 371 391 712 380 724 358 678 347 638 369 711 313 671 291 769 302 661 302 732 324 645 336 689 225 778 269 700 247 719 280 727 236 660 236 738 213 712 515 443 508 315 506 435 510 425 511 327 202 670 147 706 125 700 158 659 513 382 91 704 136 653 80 648 114 642 47 677 36 669 58 679 25 615 11 763 480 749 537 400
16349 1.77224 -4.55579 6.85115 126 85 67 1.79964 129 184 161 290 162 272 142 278 143 167 163 156 168 308 170 136 172 375
3496 1.50117 -6.36488 4.5338 140 92 89 1.0082 10 651 17 776 30 749 49 559 34 637 32 758 35 516 37 616 39 648 38 518 41 285 49 42 16 43 43 37 42 42 42 556 45 56 45 645 44 246 48 64 50 55 51 289 46 49 54 338 54 646 53 591 55 537 536 272
9913 -3.24076 -2.68225 15.0086 22 18 10 0.891912 213 632 508 464 125 598 47 555 69 552 58 601 335 574 531 520 2 542 498 407
16345 -5.61968 -8.73351 8.15809 34 35 37 0.369917 101 22 162 197 299 165 300 148
3492 -5.78165 -5.04737 12.8235 80 80 76 0.585921 16 478 24 471 9 501 41 547 10 702 15 723 17 712 18 652 49 610 19 718 12 725 21 736 20 687 16 634 23 512 22 578 9 645 8 539 28 738 27 656 26 902 35 554 37 661 39 703 38 557 43 733 42 476 44 586 40 598 52 738 51 603 54 699 53 623 56 715 55 584 541 584 4 462 540 447 5 451 27 512 538 513 534 632 535 444 533 448 528 422 57 664 524 455 60 582 63 690 62 608 523 470 521 457 64 621 67 704 65 683 496 529 495 520 497 539 493 492 491 516 494 538 500 515 447 473 458 448 469 509 424 470 507 323 324 392 225 418 247 432 191 392 236 399 202 338 180 320 147 263 125 258 169 346 158 342 68 599 66 599 91 329 102 354 80 340 114 331 47 343 36 352 69 329 58 371 71 577 72 538 74 713 73 590 76 662 75 490 520 327 531 322 3 304 446 302 77 534 498 241 480 501 537 450
9908 7.27176 -3.51423 8.21279 96 60 29 0.5189 7 366 9 400 10 424 202 253 6 371
16332 -5.36362 -7.84961 9.98017 14 7 24 1.45223 56 514 57 483 62 567 63 516 66 434 72 619 60 438 60 285 63 640 76 488 77 389 81 408 97 389 98 372 98 459 97 482 100 349 105 378 109 337 137 551 133 491 129 500 134 537 122 399 120 313 110 356 154 359 150 370 149 290 152 327 151 316 153 335 156 351 157 342 155 307 104 248 117 215 118 237 126 298 119 385 128 291 127 260 130 298 132 306 137 448 127 388 124 97 123 241 129 391 131 253 133 284 134 429 135 284 135 401 138 268 59 56 110 264 150 243 162 220 162 327 163 347 164 332 164 403 207 219 186 82 188 88 203 225
3479 -5.75739 -5.85361 11.7955 5 10 12 0.981406 30 892 32 871 33 764 41 935 37 845 43 1003 42 787 45 944 40 773 50 951 37 906 52 998 53 853 56 955 59 967 60 809 63 913 62 814 65 906 70 865 68 818 66 804 72 879 74 934 73 780 76 849 75 779 77 707 78 747 79 451 81 767
3465 6.84853 -3.14797 8.98828 137 93 55 1.66113 29 505 30 602 26 628 28 650 32 601 22 353 20 426 21 460 31 489 521 506 518 396 493 384 494 415 514 324 113 277 480 197
3462 0.456657 -3.39718 8.66458 143 95 70 1.84044 29 148 32 194 41 722 30 420 33 171 37 189 42 619 31 157
29159 -0.519459 -7.11886 4.31357 124 93 141 1.74581 463 273 462 287 422 237 416 288 464 251 465 312 467 253 420 243 423 208 466 156 468 205 471 199 472 310 474 287 473 284 421 193 419 189 418 235 415 251 411 236 405 251 403 284 417 190 414 229 412 176 410 148 407 323
3442 -0.475107 -2.28377 -1.79904 0 0 0 1.09333 27 521 30 533
16278 -4.93213 -9.52338 7.76892 3 5 5 1.64132 127 343 157 310 229 227 245 214 272 185 273 161 278 138 287 192 95 380 289 237 288 204 329 279 315 149 350 275 349 227 308 202 361 242 281 208 360 231 370 282 383 202 445 233 461 381
3425 3.29414 -5.06913 5.96466 131 84 61 1.83139 27 322 41 338 26 724 43 387 42 314 40 122 96 323 61 358 62 321 94 391 132 488 155 334
3422 -5.35444 -6.46921 10.8579 0 3 10 1.02161 30 327 41 315 52 374 31 271
16273 -5.03393 -3.6807 14.26 58 58 55 0.555789 83 93 534 159 84 78
3420 1.86865 -5.61162 5.55199 90 37 25 0.849828 33 78 34 75 35 281 37 91 38 78 41 309 43 373 42 293 40 302 54 108 53 311 74 114
9826 6.90491 -2.7248 9.4629 127 79 36 1.32514 12 510 510 201 513 69 511 84
16258 -4.95529 -9.00037 7.06103 35 35 31 1.66614 99 13 161 9 106 7 109 8 119 3 132 15 149 14 144 176
29122 -4.45151 -7.89506 9.29682 0 0 0 0.145362 390 224 459 178
3405 -5.38398 -6.43014 11.1425 72 77 100 0.952786 20 75 41 101 50 103 117 84 105 112 118 115 119 121 121 102 122 108 120 100 153 132
3404 1.56578 -5.75864 5.31717 35 0 0 0.671103 17 303 18 307 19 343 39 331 41 92 40 294
16236 2.05686 -4.69253 6.63849 0 0 0 1.17128 120 400 143 513 161 462
3383 -5.09699 -5.00487 12.6342 56 60 62 0.867706 18 654 49 611 21 738 22 579 38 560 28 739 39 704 27 657 29 437 43 734 42 595 41 698 45 694 44 587 48 723 46 567 54 700 541 585 4 612 540 580 530 613 60 583 61 669 63 695 523 471 27 513 67 705 519 402 521 459 495 522 497 540 496 530 493 493 491 517 494 539 502 391 500 516 504 290 70 648 68 494 66 601 47 344 36 353 72 666 71 578 75 588 1 487 335 380 113 351 446 303 2 350 96 539 98 487 99 483 101 472 104 533 95 438 94 403 108 487 107 520 106 473 126 577 130 637 137 600 132 661 133 590 129 536 134 639 131 497 122 434 120 470 124 456 141 603 139 542 135 584 140 521 138 579 150 566 149 446 152 508 154 551 151 415 156 548 160 491 161 510 11 687 480 503
9779 7.45755 -2.83863 9.19164 91 50 19 0.57544 213 167 291 183 313 169 324 157 347 146 358 171 413 176 435 172 125 161 513 73 91 151 36 175 58 176 69 161 25 270 520 149 3 147
3358 -4.20448 -6.61388 10.7594 9 10 2 1.70415 435 587 38 534 517 412 89 232
16206 4.12094 -6.4006 3.77751 168 107 75 0.450079 137 111 138 87 139 96 140 86 141 100 161 53
3353 -4.72305 -8.59006 8.7353 4 5 0 1.34225 28 678 38 512 518 524 92 513 126 615
3349 -4.99928 -6.30345 10.9516 3 5 5 2.00945 38 422 50 563 51 463 53 481 52 559 54 377 49 309 503 396 502 210 507 171 169 217 117 336 119 406 133 316 132 341 131 291 120 239 145 399 148 242 156 277 123 375 130 461 175 262
9764 0.95326 -4.3899 6.848 166 110 88 0.382986 515 646 538 861 506 647
3343 -5.16344 -3.7942 14.0154 50 52 49 1.80318 7 347 38 335 9 384 40 372 41 401 6 350 49 497 4 354 538 360 536 343 18 532 529 361 530 331 43 445 50 442 528 291 527 338 526 330 521 157 519 298 74 622 73 505 75 521 11 407
29045 0.879988 -5.54585 5.3472 242 234 236 1.82584 453 93 456 267 457 100 461 30 463 25 464 278 465 145 467 287 457 300 463 310 465 414 460 91 459 86 460 229 462 27 462 169 466 28 455 210 468 163
3328 -0.170458 -6.02609 6.00782 171 125 107 0.854279 22 57 38 66 42 63 60 90
3310 5.09052 -5.32973 5.4889 149 128 116 1.90647 35 536 12 547 15 551 17 532 19 536 21 353 37 504 33 100 35 439 30 85 32 100 34 96 39 782 38 641 41 681 42 577 31 76 538 74 43 566 539 247 534 308 535 58 533 276 48 559 43 713 48 823 46 285 537 59
3305 1.06489 -5.96504 5.96283 117 57 55 1.75629 49 924 39 1039 48 1056 46 899 57 970
16155 -4.92729 -7.2174 9.80452 43 45 44 1.43048 126 308 159 346 160 244 124 248 161 253 162 230 165 254 167 101 168 209 170 98 190 91
3302 0.259905 -3.24165 8.25811 105 78 63 2.15365 32 929 33 825 34 987 35 777 37 912 39 958 38 798 41 942 42 848 43 1014 45 913 49 846 44 835 40 834 48 938 50 923 52 1006 51 824 31 821 46 823
16151 -2.02173 -1.92102 4.11642 59 61 56 1.88361 126 227 159 229 160 176
3298 1.14391 -4.50243 7.05036 204 144 123 1.04033 23 869 37 851 39 902 38 731 491 921
16147 -1.55536 -1.31981 2.04581 6 5 20 1.18244 148 147 160 152
29011 4.47576 -5.35385 5.33177 191 146 111 1.31367 454 533 457 529 465 649 470 589 453 506 460 506 459 518 455 496 462 531 468 501 471 515 474 606 475 495 476 535 481 519 477 504 482 471 484 488 488 517 489 567 490 525
3294 -5.49073 -7.82492 9.28308 61 65 69 1.42087 37 835 49 784 41 828 37 775 43 934 42 774 45 834 42 721 43 880 44 777 44 732 48 913 40 721 40 763 50 889 52 949 51 753 48 865 52 901 46 707 46 757 54 892 53 753 53 803 56 777 54 775 55 721 55 771 57 782 59 803 60 708 61 811 63 820 62 726 64 738 67 826 65 844 60 750 70 767 66 656 72 782 72 826 71 729 74 835 73 687 76 758 76 797 75 690 77 610 81 624 78 606 82 441 83 479 83 518 96 573 97 552 98 564 98 599 100 580 100 615 99 599 101 560 101 594 105 610 103 627 104 582 92 519 94 488 94 521 108 541 107 569 106 530 93 432 117 519 118 537 119 592 128 635 128 727 121 520 126 623 130 664 137 630 132 547 127 548 133 560 123 578 129 572 134 608 131 534 122 520 120 489 115 428 124 535 139 573 135 555 140 640 138 539 143 596 116 426 111 456 111 484 110 464 145 585 142 543 150 534 144 554 144 583 148 510 146 475 154 511 149 456 152 526 151 485 153 505 157 420 155 443 79 398 160 509 161 490 84 362 162 477 85 332 165 505 164 517 162 505 167 435 167 474 166 447 166 479 89 312 90 354 168 426 168 459 170 450 176 399 181 441 178 371 175 348 179 368 182 363 88 249 88 275 177 385 86 276 186 331 185 411
9697 7.42404 -4.11931 7.42974 92 62 36 1.19289 12 155 413 109 435 298 527 323 526 135 502 88 61 208 534 135 447 315 424 114 213 116 501 146 538 129 540 121 500 135 17 375 16 342
16121 5.63056 -5.28883 4.99905 0 0 0 1.12156 92 666 111 550 109 652 115 575 88 335
3268 -3.19557 -3.18823 14.1113 40 39 36 1.64523 9 208 18 406 26 790 39 606 43 259 48 247 55 203
16114 -3.70525 -4.94153 11.9865 0 0 0 1.45946 35 559 150 508
3261 -5.49209 -5.30596 12.3495 6 7 12 1.30381 19 553 39 555 76 530 103 512 100 392 101 401 109 385 118 451 119 417 119 504
9680 0.128416 -7.95751 4.61062 111 65 67 0.843229 280 191 291 228 324 187 213 352 202 308 147 9 158 2 58 335 14 164 1 256 113 6 531 160 446 0 2 7 224 8 509 3
16112 -3.53165 -4.98617 11.1126 0 0 0 2.71298 116 353 50 696
3259 1.16097 -5.30643 5.77145 113 60 46 1.56208 30 330 34 349 35 289 37 498 39 536 29 70 38 419 41 317 40 99 52 554 51 460 71 116 74 562 76 508 83 359 96 132 97 111 98 112 100 369 99 262 95 248 94 305 108 325 107 350 106 317 109 359 93 264 111 178 85 191
9662 7.81339 -2.45113 9.22476 106 72 46 1.31457 247 373 499 334 413 190 527 220 522 392 523 418 524 221 500 240 447 214 402 217 391 189 380 212 324 336 191 179 236 175 213 186 506 330 169 165 91 291 504 349 518 415 505 498 516 368 80 129
22514 1.0484 -5.92075 5.36337 70 32 18 1.77038 311 344 328 322 331 373 317 277 319 302 320 315 321 369 329 365 327 432 312 324 310 342 315 301 326 324 337 399 341 389 339 355 340 338 333 352 338 348 343 385 332 372 334 329 330 362 342 333
9661 7.88543 -3.01182 8.53453 85 58 36 1.40508 35 228 324 161 34 276 191 149 15 277 236 158 493 216 517 110 491 221 125 152
16093 2.13853 -5.61853 5.46479 141 92 76 0.608531 83 51 541 52 84 51
3240 -3.37231 -4.8606 13.8639 61 31 3 1.36886 8 134 39 395 52 190 130 484
16092 -0.634495 -4.33055 12.6016 99 65 47 0.661864 54 207 57 186 134 266 79 92
3239 -6.20047 -4.7601 13.2897 8 9 12 1.53451 21 381 39 387 23 518 45 555 500 325
9624 0.710213 -7.04802 5.09877 139 89 72 1.12581 380 39 391 218 236 48 369 49 402 34 435 231
28920 1.66119 -6.48663 4.08308 132 87 93 0.585195 451 87 452 94 470 186 456 104 471 156
3203 0.709406 -7.04264 4.99513 165 123 120 0.953272 33 24 34 27 39 32 32 29 38 22 43 531 48 296 50 307 52 309 51 273 54 314 53 271
9623 3.98074 -7.25803 4.36708 94 79 101 1.02857 48 42 247 16 258 25 236 28 202 181 125 41 91 28 480 17
28919 4.62896 -5.3896 6.1996 143 105 85 1.26561 432 121 439 88 440 147 444 80 445 93 452 155 448 88 450 83 457 75 441 150
3202 0.550277 -7.03936 4.88086 174 131 124 1.16131 27 20 34 20 35 24 37 263 39 25 38 221
22475 -4.57014 -8.3732 8.85582 50 46 38 1.06205 322 228 312 225 461 327 456 280 463 320 462 257
9622 4.52699 -7.43114 4.07641 109 94 117 0.342087 225 20 358 15 236 19 136 16
3201 -5.31706 -8.86167 8.62174 36 40 69 1.62007 27 14 39 15 26 23
28917 -4.28135 -8.5576 9.43987 68 46 23 0.468106 400 166 456 60 470 129
3200 4.77665 -7.51035 3.81553 141 124 144 0.681164 34 3 39 10 31 5 23 241
28916 -0.346449 -11.2584 5.28013 143 106 133 1.7997 434 154 436 164 437 157 438 190 439 155 440 159 442 175 445 167 451 150 461 108 463 116 464 105 465 131 467 185 470 102 443 144 444 165 448 178 449 153 466 100 441 164 474 130 472 93 473 90 471 90 450 157 452 183 476 99 477 4
3199 -0.888603 -7.79912 4.999 239 233 226 1.48016 30 482 35 229 37 3 39 1 32 283 34 622 34 0 38 210 55 521 43 4 45 3 63 491 67 308 64 450 65 482 493 9 494 3 6 428 7 428 10 1 358 12 13 0 347 11 380 10 12 0 369 12 313 206 302 207 324 197 191 6 70 276 66 231 91 18 11 275
9619 1.69018 -5.74865 5.7154 103 31 14 0.618099 535 46 191 61 213 65 202 50 180 52 147 62 169 214 102 51 136 204
16051 1.14485 -5.22082 5.51665 144 77 52 1.28846 148 685 149 619 157 658 150 756 160 644 161 655 162 609 163 658
3198 -5.72039 -7.29349 10.2557 61 64 70 1.2373 29 252 34 323 35 270 37 299 39 328 32 63 33 257 38 252 41 83 43 75 42 281 45 320 44 259 40 290 54 358 56 342 55 77 59 379 60 295 61 330 63 352 62 293 64 319 65 97 70 116 68 105 66 101 72 104 74 107 73 100 76 99 77 72 81 271 78 69 82 156 83 151 96 304 97 278 98 265 100 257 95 244 92 206 93 171 121 72 137 148 84 108 85 115 88 76
22470 0.528738 -3.46757 8.04614 136 83 67 0.417438 300 204 312 156 301 148
9617 -5.80034 -3.02071 15.3672 40 36 51 1.22382 336 178 496 215 191 134 49 222 26 306 27 199 29 168 54 477 53 409 59 506 57 251 519 173 499 265 505 100
3196 2.44994 -5.10913 5.72097 148 102 90 1.36282 10 1088 17 1085 18 1037 15 1092 13 996 12 1109 19 1108 21 1129 20 1051 16 995 23 1035 22 947 24 996 26 1318 9 1005 8 1095 27 1023 34 1025 33 918 32 1017 35 909 30 1043 37 1000 39 1052 38 882 41 1039 43 1101 42 938 45 1042 44 921 48 1066 40 933 49 938 50 1046 52 1091 31 909 51 937 46 911 54 1041 53 949 56 1086 55 925 29 932 57 985 59 1063 60 903 61 994 63 1000 62 905 28 1096 64 908 67 1069 65 979 70 977 68 945 66 923 72 1001 71 901 74 1052 73 902 76 965 75 896 77 819 81 878 78 871 82 644 83 686 96 800 97 743 98 721 100 745 99 729 101 727 105 787 103 768 104 721 95 673 92 745 94 658 108 675 107 709 106 675 109 731 93 613 117 705 118 724 119 787 128 880 121 702 126 841 130 851 132 867 127 775 133 786 123 764 129 798 131 760 122 700 120 670 115 665 124 725 116 611 134 835 111 633 110 619 112 584 79 572 84 525 85 518 87 487 89 476 90 492 88 414 86 432 11 1063
28912 2.58191 -5.58482 4.67287 201 151 118 0.336523 434 44 437 49 438 52 439 49 440 43 442 39 443 97 444 39 445 44 448 45 449 106 450 33 451 39 452 121 454 123 456 48 457 39 470 40 453 103 441 48 455 40 471 31
3195 6.35232 -3.34652 8.9633 120 76 38 1.012 413 837 435 875 22 817 27 893 30 920 33 795 35 785 37 883 435 738 49 769 413 588 10 837 18 773 17 829 15 847 13 749 12 761 19 762 21 776 20 811 16 755 23 788 22 699 24 814 26 1065 9 766 8 818 7 742 28 859 27 706 27 837 29 699 30 869 34 712 34 845 33 613 33 738 32 728 32 845 35 672 37 758 39 814 39 931 38 655 41 817 43 866 42 637 42 827 45 821 44 719 48 905 48 942 40 702 50 878 52 871 31 685 51 736 51 830 46 605 46 791 54 835 53 736 56 886 55 757 6 748 541 621 4 643 4 775 4 829 540 704 5 697 538 772 539 668 536 775 534 757 532 710 532 866 535 693 533 703 533 821 529 694 529 851 530 732 528 756 528 816 527 739 527 850 526 708 525 744 57 701 57 814 59 905 524 628 60 743 61 842 63 857 59 951 62 756 523 779 521 688 522 693 64 768 519 636 519 749 518 643 496 726 496 900 495 822 497 836 493 669 493 849 491 693 491 875 499 927 499 1102 501 728 494 819 502 646 500 792 447 762 447 906 458 725 469 697 469 865 503 681 424 643 424 910 517 616 517 678 507 591 512 515 514 578 514 636 402 623 505 643 516 592 504 577 391 580 380 601 358 647 347 505 369 585 369 822 313 642 291 663 302 627 324 619 336 576 225 583 225 756 225 837 269 519 247 682 280 624 280 775 258 615 191 546 236 633 213 616 515 567 506 484 508 520 508 589 510 535 511 509 202 564 180 542 147 600 125 582 169 574 158 553 513 478 91 629 91 688 102 644 102 703 136 546 80 628 80 690 114 628 47 611 36 653 69 622 69 677 58 582 25 599 14 597 1 726 335 478 335 724 520 571 113 540 531 502 531 630 3 479 446 462 2 527 224 467 224 602 509 422 498 395 11 808 11 927 480 693 480 869 537 698
28911 2.56459 -5.5076 4.67651 201 151 118 0.606214 443 98 445 45 449 107 451 40 452 120 454 124 457 40 470 39 453 102 455 41 474 151 472 40 473 36 471 30 489 123 492 187 488 109 490 112
3194 -5.59535 -6.83271 10.7601 84 83 176 2.1231 49 579 19 528 21 532 23 499 24 601 37 493 27 70 28 75 33 81 35 283 32 79 45 662 31 60 31 535 54 661 56 96 55 85 60 548 61 627 62 581 77 86 75 106 81 88 98 101 100 93 99 98 132 156 111 56 110 68
22467 0.921082 -5.80085 5.40286 91 31 10 1.42923 322 153 312 132 339 156 340 55 343 63
9614 7.29883 -2.81216 8.46294 116 76 43 1.67636 225 975 247 983 258 903 269 897 280 933 291 974 302 937 313 956 324 922 336 954 347 902 369 974 380 997 391 964 191 919 236 923 213 908 202 854 180 831 147 900 169 865 158 842 136 839
22459 -2.04689 -2.51028 7.82651 0 0 0 3.48184 289 226 307 267
9606 5.64644 -3.42748 9.3129 96 57 27 0.907399 4 823 31 784 191 762
16038 -5.39342 -8.58191 8.7045 29 29 35 1.03634 124 529 153 502 159 634 151 481 162 472 179 356 194 398 184 367 186 359 189 450 190 393 196 375 198 432 206 353 201 365 218 425
28902 -4.77015 -8.9027 8.30495 3 3 0 1.77057 393 179 428 255 429 339 184 272 348 288 359 447 352 304 372 361 385 326 474 428 409 191
3185 1.48515 -5.12203 5.92831 113 59 41 0.934593 32 941 33 843 34 950 35 836 49 872 37 927 39 977 38 813 41 964 43 1032 42 872 45 977 44 857 48 994 40 859 50 979 46 845 55 859 57 916 59 997 60 839 61 931 65 932
9602 -3.11502 -4.4256 14.0216 0 0 0 0.794636 402 770 413 740 424 814 533 803 335 605 224 522 92 623 41 909 523 813 525 834
3181 -4.65415 -4.0762 13.4467 8 9 14 1.49134 16 799 26 1109 34 890 37 867 18 831 19 895 57 851 75 746 81 738 83 542 96 720 97 661 98 611 99 612 101 634 118 627 119 691 128 787 121 605 126 753 133 698 129 706 131 658 124 633 111 534 79 425 84 377 81 736 87 354 88 292
9601 -4.14353 -8.17626 10.0515 72 45 16 0.758682 7 763 291 699 508 475 36 591 72 787 48 869 49 740
16033 -4.58057 -4.81336 12.3783 5 5 5 0.689933 75 496 176 378
28897 -4.19488 -7.84823 8.12954 0 0 0 2.11934 432 209 465 480
3180 -3.89107 -4.54455 12.6195 18 19 11 1.69689 37 856 39 910 41 903 523 758 512 566 324 669 102 613 135 658 144 603
9600 4.39826 -3.24318 10.6918 0 0 0 0.800916 41 863 491 880
3179 0.766286 -4.82139 6.80645 229 221 210 1.20529 37 846 41 889 43 945 48 919 52 961 51 807 46 811 54 904 53 854 56 902 57 886 59 925 63 869 62 774 67 889 70 785
9597 1.32388 -4.22294 7.35843 177 108 78 0.291302 258 605 280 613 324 604 336 645 347 584 358 634 191 606
16029 -4.57937 -7.49163 9.82988 5 5 13 1.10623 83 351 159 479 84 250 161 351 85 294 211 276
3176 -5.423 -9.91168 8.8967 40 40 35 1.70114 30 813 49 776 32 807 28 870 39 822 43 872 42 714 45 871 41 868 50 882 52 940
9594 6.64365 -1.87775 10.8985 100 57 24 0.821473 269 544 291 613 324 474 402 543 435 566 191 572 280 571 213 641 202 512 147 449 169 532 158 576 47 481 335 512
28890 -4.61885 -9.67357 8.37241 10 4 0 1.12919 345 297 353 232 463 309 465 348 464 277
3173 -3.26688 -3.33003 14.1789 46 43 41 1.26554 24 758 435 646 26 780 413 593 534 666 503 588 507 587 102 555 335 556
9592 -3.93798 -7.60289 11.066 72 36 3 3.15619 358 609 369 639 70 718
3171 -3.75506 -6.63345 11.757 69 41 14 1.60536 28 827 29 668 37 730 43 829 42 677 44 684 48 819 40 578 41 678 52 707 46 653 61 768 63 772 62 679 39 779 458 589 70 729 74 794 92 540 109 531 140 578 11 778
16023 1.80042 -4.38639 7.70565 102 66 48 1.37189 126 207 156 300 157 283 155 258 160 289 162 285 142 471 143 519 144 533 164 297 203 325 204 214 207 157
3170 -4.32844 -8.87086 9.35674 101 63 26 1.87356 27 730 35 614 28 804 40 653 8 759 37 718 491 752 526 670 532 752 539 626 458 686 247 647 291 624 280 583 236 590 213 573 515 440 506 433 202 523 125 543 114 506 3 442
16020 -5.54116 -7.55073 9.99625 6 3 17 1.12953 117 218 156 250 157 241 174 273 175 174
3167 -4.65284 -8.4431 8.70142 11 13 8 1.96964 15 788 19 792 37 710 41 769 24 698 51 675 16 692 61 740 510 423 70 704 76 598 75 535 56 648 78 600 83 319 528 653 527 685 100 523 103 551 104 513 107 487 137 626 132 627 141 539 92 413 111 406 142 409 198 375 206 355 11 762 537 649
3166 -4.60183 -8.60333 8.52294 30 31 23 1.35851 24 694 42 657 52 811 46 629 528 649 511 404 99 521
9582 -3.78839 -7.03527 7.00267 33 31 30 2.64643 358 381 191 215 369 406
3161 -5.23007 -5.63832 11.8475 3 0 45 1.41343 13 629 37 654 24 621 413 557 39 694 48 707 535 441 535 572 526 591 61 653 447 624 225 552 68 484 71 566 73 576 75 579 77 518 81 566 96 533 101 395 100 390 95 430 109 382 118 449 108 425 130 558 137 491 132 577 133 518 123 549 129 528 134 565 131 491 115 387 57 650 141 589 139 536 135 427 140 514 150 499 144 483 149 384
16013 -5.45269 -7.40363 9.86281 57 58 61 1.12063 52 80 159 113 160 236 172 87 173 98
28877 5.38793 -5.73129 5.68559 143 106 88 1.3155 426 107 465 108 464 84
3160 -3.45091 -2.8817 14.4195 19 17 13 1.55845 13 535 34 445 35 492 37 574 8 221 18 420 6 397 12 631 541 634 540 374 5 379 539 463 536 547 535 624 532 723 529 411 518 496 496 429 493 548 501 609 494 600 491 585 502 444 502 556 491 713 447 528 517 458 391 444 247 491 336 335 537 495
9577 7.6589 -2.7564 9.19948 130 87 54 0.886139 402 401 191 158 10 481 258 414 5 214 8 248 538 236 539 196
16009 4.24877 -6.57794 3.52304 152 94 68 0.736085 130 53 157 55 129 63 137 76 139 265 179 42
3156 1.57189 -5.76418 5.40834 98 33 32 2.02517 7 65 33 556 8 68 37 488 39 332 38 71 18 76 41 515 43 367 526 262 528 393 529 472 59 86 524 262 61 104 65 100 70 123 68 327
22429 -4.77092 -8.57751 8.20444 30 29 22 1.53942 300 358 317 314 329 411 341 455 350 424
9576 -0.107582 -3.62051 9.09869 0 0 0 2.85239 26 546 539 113
16008 4.18866 -6.62029 3.54368 162 111 85 1.73193 131 44 132 67 159 300 157 53 163 218 203 201 199 179 200 185
3155 -5.21478 -7.24866 9.82771 7 8 11 1.99253 8 502 34 324 37 483 538 285 540 259 536 46 536 456 63 650 41 509 62 455 62 572 64 486 67 362 4 275 65 340 514 383 519 492 516 290 517 405 518 439 519 376 515 263 66 291 68 318 109 74 140 290 161 431 165 346 90 234 172 281 172 356 171 261 171 336 174 274
16006 4.6416 -7.19393 3.419 222 210 197 0.797076 132 40 134 34 135 34 137 33 142 46 143 41 144 39 157 32 126 31 127 21 128 34 129 39 130 35 131 28 133 34 138 25 139 50 161 28 162 37 165 19 164 27 168 179 234 47
3153 -5.19528 -8.50007 8.54741 55 59 61 1.76874 28 510 37 461 54 506
9573 -3.56671 -4.96193 14.2253 14 0 0 0.215933 497 354 191 99
9571 -5.3109 -6.35187 11.1793 83 94 113 0.558243 280 66 521 86 523 68 524 68 525 87 529 75 191 66 269 61 527 68 47 74 69 75 58 83 25 68
3139 -0.712086 -2.52554 -1.42171 0 0 0 0.0876854 28 342 30 509
16003 4.91048 -7.10641 2.97958 142 123 120 1.06938 143 226 144 189 145 19 146 145 148 172 152 171 157 20 155 19
3150 -4.15602 -3.14835 14.267 7 8 13 0.909712 21 455 37 406 23 415 525 377 11 432 480 190
3135 -5.54304 -3.06534 15.075 53 53 50 0.686556 16 183 39 463 508 51 14 124
28852 0.269269 -4.28742 7.82682 215 205 193 2.15677 454 438 456 493 461 519 463 504 465 560 457 433 464 440 466 448 460 413 462 414 468 390 471 399 476 376 472 439 478 430 476 416
3146 -6.10859 -4.29513 13.9495 9 10 14 1.46395 10 374 37 356 63 425 62 357
22419 -4.59251 -7.59338 9.79537 7 0 11 1.13338 287 216 331 313 310 248 345 247 340 276 341 326 346 225 346 280 342 226 359 468 311 192 361 327 360 321 284 171
9566 1.16576 -6.35913 5.30119 152 88 62 1.9571 336 248 424 264 191 49
3134 -6.39398 -3.00397 15.2917 45 46 36 1.39245 17 193 21 217 37 224 16 181 19 215 28 436 39 243 43 488 44 177 533 163
3145 -4.96447 -4.8585 12.7975 108 102 204 1.08479 23 340 37 343 45 556 44 460 54 571 55 461 64 380 63 173 53 157 59 191 62 173 67 419 65 408 70 407 68 375 66 342 72 198 71 184 74 217 76 386 75 179 77 306 81 447 78 446 96 349 97 328 98 307 101 158 104 160 95 271 107 376 117 271 119 425 126 219 133 205 124 282 138 194 154 185 152 145 150 161 151 150 153 164 86 101
22416 0.507309 -6.71668 5.75893 144 91 78 1.18213 320 196 327 167 328 180 329 215 331 149 311 129 310 176 341 235 337 253 334 217 338 210 330 183
9563 4.23526 -7.28093 4.09052 96 79 99 0.945111 324 14 191 20 358 19 391 18 213 26 180 161 147 24 125 30 169 31 158 35 102 187 136 24 80 154 114 17 47 28 69 29 58 211 14 179 335 188 520 12 3 172 1 23
9560 4.88941 -5.27619 5.64923 174 148 131 1.54677 56 130 57 334 60 327 62 322 63 143 64 354 67 171 17 331 18 495 19 545 20 510 21 542 23 509 16 90 22 431 24 467 43 131 42 309 44 93 48 118 50 379 52 566 46 105 54 137 26 151 541 62 540 68 59 409 64 609 65 546 63 673 70 162 68 356 66 325 74 157 77 122 78 100 83 272 103 408 103 504 143 425 150 411 144 477 134 686
3128 7.55006 -4.16335 7.26945 57 28 6 0.791016 15 157 34 155 35 142 37 164 495 140 491 124 20 134 501 148 494 136 502 90 514 60 313 116 269 111 213 118 125 123 513 42 114 116 480 139 5 106
15992 3.62601 -6.59984 4.21193 140 91 66 1.75062 139 818 144 736 146 659 149 626 150 762 153 669 154 724 156 719 145 780 159 853 157 687 155 642 160 651 167 581 166 590 175 507 173 519 176 570
9559 7.14777 -3.02727 8.93137 122 81 45 1.24236 518 499 503 600 13 674 18 591 13 564 15 652 17 466 16 562 26 814 9 574 28 475 27 582 29 373 30 603 34 615 33 385 32 471 37 592 31 374 6 543 5 529 536 408 534 558 532 445 535 506 533 517 529 401 530 375 528 495 527 545 526 541 525 542 521 507 522 494 519 454 518 398 496 439 495 436 497 608 493 398 491 216 499 941 501 436 494 436 502 310 500 704 503 329 517 355 380 357 313 452 291 492 302 450 269 296 280 447 258 291 21 797 225 489 247 497 236 457 213 429 515 407 510 397 125 312 169 394 102 286 136 283 114 280 47 276 335 136 446 132 480 408 537 503
